//X Y Z R G B Nx Ny Nz
711
5.81362152 7.75462961 3.13878393 0 0 0 -0.999999 0.000978 0.000978
11.44945145 8.30745792 -0.38097146 0 0 0 0.000978 0.999999 0.000978
12.02849770 4.28416824 5.76363373 0 0 0 0.000978 0.999999 0.000978
11.52831554 4.28416872 1.18188095 0 0 0 0.000978 0.999999 0.000978
6.38526440 10.50892544 11.54373455 0 0 0 0.420274 0.907321 -0.011783
11.14375496 8.44347286 2.44902062 0 0 0 0.000978 0.999999 0.000978
8.89969730 4.46815586 1.25704443 0 0 0 -0.999976 0.000983 0.006883
5.91361904 6.47791910 6.35418129 0 0 0 0.999999 0.000978 0.000978
8.06050491 4.28416920 0.18679810 0 0 0 0.000978 0.999999 0.000978
11.46687794 7.71814728 1.70160699 0 0 0 -0.000978 0.000978 0.999999
5.78873301 6.10574293 4.68185568 0 0 0 -0.118544 0.992943 -0.003263
9.05587769 7.91151237 0.77828610 0 0 0 0.008218 0.219533 0.975570
6.25514555 6.09160757 10.88414764 0 0 0 -0.081700 0.560430 0.824162
9.03413773 8.00948620 1.78258598 0 0 0 -0.008867 0.000985 -0.999960
5.91361332 8.03808594 11.70035934 0 0 0 0.999999 0.000978 0.000978
5.91361856 7.91139078 6.88113403 0 0 0 0.999999 0.000978 0.000978
8.17763805 8.58860016 1.75388384 0 0 0 0.000978 -0.999999 0.000978
10.02349854 4.35539055 -0.91273808 0 0 0 0.000978 -0.999999 0.000978
6.99631357 6.10574293 6.22203445 0 0 0 -0.141108 0.989979 0.005555
10.58007526 8.58852196 2.51863289 0 0 0 0.000978 -0.999999 0.000978
6.04377556 4.36006021 6.60461998 0 0 0 0.051970 -0.998035 -0.035000
5.88991547 7.72069550 6.00516319 0 0 0 0.000978 0.000978 0.999999
9.25148964 4.35541964 -0.55606890 0 0 0 0.000978 -0.999999 0.000978
9.54450798 5.70888901 5.75254536 0 0 0 0.000978 -0.999999 0.000978
5.91361856 9.93156052 7.20948601 0 0 0 0.999999 0.000978 0.000978
9.27650642 4.28416920 -0.21882057 0 0 0 0.000978 0.999999 0.000978
6.07499981 10.08173180 9.03910160 0 0 0 0.000978 -0.999999 0.000978
12.56883812 8.29688931 1.77266800 0 0 0 0.000978 0.000978 -0.999999
12.64231586 4.35529327 0.83076286 0 0 0 0.000978 -0.999999 0.000978
11.64669037 4.28416872 1.59313011 0 0 0 0.000978 0.999999 0.000978
9.25843811 8.45054150 -0.03129721 0 0 0 0.000978 -0.999999 0.000978
5.81361818 8.25890636 7.00386381 0 0 0 -0.999999 0.000978 0.000978
12.83321381 8.45041752 0.49228740 0 0 0 0.000978 -0.999999 0.000978
5.91352558 5.33951092 11.72529793 0 0 0 0.989624 -0.110475 0.091869
6.19008255 10.45985603 2.04671502 0 0 0 0.001219 0.956644 -0.291258
9.38020229 6.10574293 6.63971329 0 0 0 -0.002979 0.999912 -0.012908
13.35191727 8.58842468 0.31561351 0 0 0 0.000978 -0.999999 0.000978
5.81361914 7.29646349 5.65073442 0 0 0 -0.999999 0.000978 0.000978
11.24282169 5.22146082 1.86754405 0 0 0 0.006883 0.000983 0.999976
5.81361818 7.95144272 7.29047394 0 0 0 -0.999999 0.000978 0.000978
5.81534147 4.36006021 7.96208286 0 0 0 0.050605 -0.998676 -0.009295
5.81362152 6.59592342 2.81846380 0 0 0 -0.999999 0.000978 0.000978
5.91361427 9.79810429 10.76308918 0 0 0 0.999999 0.000978 0.000978
12.68791008 7.80327749 0.21649022 0 0 0 0.999960 0.000985 -0.008867
12.43599701 4.28416824 7.16889095 0 0 0 0.000978 0.999999 0.000978
12.07441521 4.28416777 12.04928684 0 0 0 0.000978 0.999999 0.000978
7.16644287 10.16117096 2.41463423 0 0 0 0.420274 0.907321 0.011783
9.27839565 7.43248177 1.72950780 0 0 0 0.985368 -0.170436 -0.001129
10.38278389 8.44349861 2.27735567 0 0 0 0.000978 0.999999 0.000978
12.12868690 4.28416824 10.36790085 0 0 0 0.000978 0.999999 0.000978
8.49687481 8.44356632 2.71791410 0 0 0 0.000978 0.999999 0.000978
11.45539951 8.44346333 2.48690319 0 0 0 0.000978 0.999999 0.000978
10.88463783 6.24405766 1.76981974 0 0 0 -0.006883 0.000983 -0.999976
8.48871803 6.11786985 10.77605629 0 0 0 0.999999 0.000978 -0.000978
10.36343575 6.71818066 1.87311590 0 0 0 0.006883 0.000983 0.999976
10.28569031 8.30749893 0.80450225 0 0 0 0.000978 0.999999 0.000978
5.81361389 9.52962399 11.30550385 0 0 0 -0.999999 0.000978 0.000978
5.90471888 10.11955738 10.48005390 0 0 0 0.000978 0.999999 0.000978
6.14324856 4.28416824 7.70436478 0 0 0 0.000978 0.999999 0.000978
5.91361856 9.86991405 7.00843334 0 0 0 0.999999 0.000978 0.000978
9.41431522 7.68419218 1.73768091 0 0 0 0.000978 0.000978 -0.999999
8.99320698 4.50902700 0.22347523 0 0 0 0.999976 0.000983 -0.006883
5.94133949 4.28416920 0.74382591 0 0 0 0.000978 0.999999 0.000978
10.69750977 8.30748463 0.47148919 0 0 0 0.000978 0.999999 0.000978
10.37248421 4.28416824 7.05950546 0 0 0 0.000978 0.999999 0.000978
12.84618759 5.24225760 1.68840730 0 0 0 0.999987 0.000981 -0.004907
9.74578190 8.58854866 -0.50579321 0 0 0 0.000978 -0.999999 0.000978
5.91362000 7.78226328 4.86990786 0 0 0 0.999999 0.000978 0.000978
5.81361437 7.94085598 10.57011986 0 0 0 -0.999999 0.000978 0.000978
5.91454268 7.98212242 2.44448686 0 0 0 0.000978 0.000978 0.999999
12.16809845 8.30743408 1.19985557 0 0 0 0.000978 0.999999 0.000978
9.24000549 7.58530474 1.71546733 0 0 0 0.985368 0.170436 -0.001129
6.25200319 8.77492523 4.31778336 0 0 0 -0.720857 -0.012549 -0.692971
5.82076883 8.89912224 4.66222620 0 0 0 0.000978 0.000978 0.999999
11.80297089 4.28416824 7.03806114 0 0 0 0.000978 0.999999 0.000978
5.91361427 7.05983162 10.76537609 0 0 0 0.999999 0.000978 0.000978
9.54298019 4.92888832 4.20231533 0 0 0 0.000978 -0.999999 0.000978
9.30860424 4.28416872 2.17124367 0 0 0 0.000978 0.999999 0.000978
5.81361818 8.83462620 7.42300320 0 0 0 -0.999999 0.000978 0.000978
9.20858860 8.44354248 2.72249389 0 0 0 0.000978 0.999999 0.000978
6.19703245 6.10574293 8.69626999 0 0 0 -0.119767 0.979126 0.164217
10.76680183 8.58851624 2.62730551 0 0 0 0.000978 -0.999999 0.000978
5.89697838 6.12342024 9.56363964 0 0 0 0.000978 0.999999 0.000978
13.22028160 8.58842754 -0.89100754 0 0 0 0.000978 -0.999999 0.000978
7.90021753 6.10574293 6.13165045 0 0 0 -0.088235 0.996095 -0.003189
8.54736996 4.28416824 10.07485676 0 0 0 0.000978 0.999999 0.000978
12.93848419 8.45041466 -0.06734943 0 0 0 0.000978 -0.999999 0.000978
9.70639229 6.75093269 1.87725770 0 0 0 0.006883 0.000983 0.999976
6.64580822 10.08173180 6.84975815 0 0 0 0.000978 -0.999999 0.000978
12.40970516 8.30742550 -0.00669606 0 0 0 0.000978 0.999999 0.000978
5.90300608 7.29934502 2.44448686 0 0 0 0.000978 0.000978 0.999999
5.84931755 9.69697094 4.45575523 0 0 0 0.001218 0.286119 -0.958193
10.03903008 6.02096319 1.87514687 0 0 0 0.006883 0.000983 0.999976
5.91362095 9.71627331 3.55554223 0 0 0 0.999999 0.000978 0.000978
13.19319057 8.58842945 2.40444088 0 0 0 0.000978 -0.999999 0.000978
12.63352013 4.28416824 10.00851536 0 0 0 0.000978 0.999999 0.000978
11.96939087 4.28416872 1.07209015 0 0 0 0.000978 0.999999 0.000978
5.91362000 6.53245735 5.24907827 0 0 0 0.999999 0.000978 0.000978
7.71688747 4.36006021 7.96323538 0 0 0 0.075074 -0.997110 0.011631
9.05304527 7.70429039 0.49247327 0 0 0 0.008218 -0.219533 0.975570
10.28655434 8.58852959 -0.59682631 0 0 0 0.000978 -0.999999 0.000978
12.82330513 8.33885574 2.13699389 0 0 0 -0.006883 0.000983 -0.999976
9.24884605 4.98639488 5.91045332 0 0 0 0.096328 -0.103292 -0.989976
5.91335630 4.65707445 5.80790663 0 0 0 0.989554 -0.119770 -0.080234
7.52630568 6.10574293 9.72773647 0 0 0 -0.061058 0.989608 0.130181
5.81070471 8.29835510 10.82745934 0 0 0 0.000978 0.000978 0.999999
9.35904980 4.28416872 3.41456032 0 0 0 0.000978 0.999999 0.000978
12.65435410 7.00168896 -0.90430677 0 0 0 0.000978 -0.999999 0.000978
12.74292088 5.89648485 0.99615127 0 0 0 -0.999987 0.000981 0.004907
7.08729172 10.19637012 5.72524405 0 0 0 0.406019 0.913864 0.001289
9.66498756 6.10574293 8.73622894 0 0 0 0.012934 0.999892 0.006964
5.81361818 8.78783035 7.09432220 0 0 0 -0.999999 0.000978 0.000978
8.89962864 6.35136318 1.24330974 0 0 0 -0.999976 0.000983 0.006883
7.45787811 6.10574293 7.40673304 0 0 0 -0.114987 0.993265 0.014236
8.49134731 7.10554457 10.80181789 0 0 0 0.000978 0.999999 -0.000978
9.09688091 7.90131950 1.63643050 0 0 0 0.008867 0.000985 0.999960
5.91362000 7.45556402 4.71681499 0 0 0 0.999999 0.000978 0.000978
5.91327953 4.76148224 3.15120840 0 0 0 0.989662 -0.101414 -0.101414
6.75156307 5.47640657 10.82688332 0 0 0 0.101624 -0.103960 0.989376
5.81361580 7.04140902 9.22888470 0 0 0 -0.999999 0.000978 0.000978
5.91329288 4.75029373 3.61621284 0 0 0 0.989656 -0.103745 -0.099082
8.98981571 5.66551256 -0.31825814 0 0 0 0.999976 0.000983 -0.006883
13.08402538 4.28416824 10.07509804 0 0 0 0.000978 0.999999 0.000978
5.82586098 4.28416920 0.06109810 0 0 0 0.000978 0.999999 0.000978
8.42537308 4.52454233 10.82683468 0 0 0 0.094198 -0.108153 0.989661
10.60608578 7.60305691 1.73780453 0 0 0 0.985368 -0.170436 -0.001129
5.91361618 9.86064816 8.71067047 0 0 0 0.999999 0.000978 0.000978
9.03309250 7.02616119 -0.57445192 0 0 0 -0.008218 0.219533 -0.975570
12.71630859 5.97486210 1.75826991 0 0 0 -0.006883 0.000983 -0.999976
12.43529129 8.45043278 2.11304522 0 0 0 0.000978 -0.999999 0.000978
9.93197632 5.89244270 1.87581909 0 0 0 0.006883 0.000983 0.999976
13.43143749 8.44339275 -0.34251034 0 0 0 0.000978 0.999999 0.000978
8.43816948 6.63008356 5.23710251 0 0 0 0.001325 -0.878249 0.478202
9.74516201 4.28416872 -0.01211929 0 0 0 0.000978 0.999999 0.000978
12.71037388 7.65374804 1.31002307 0 0 0 0.008478 -0.270069 0.962804
5.91361856 8.41272926 6.84497738 0 0 0 0.999999 0.000978 0.000978
9.62425041 8.58855534 2.51788425 0 0 0 0.000978 -0.999999 0.000978
8.43709469 5.79388046 3.85880136 0 0 0 -0.999999 -0.000978 0.000978
5.82347584 6.52787685 4.29890203 0 0 0 -0.999999 0.000978 0.000978
9.28585434 8.30753422 0.57301599 0 0 0 0.000978 0.999999 0.000978
6.85549355 4.28416920 -0.72744370 0 0 0 0.000978 0.999999 0.000978
12.19940853 8.30743217 -0.70890576 0 0 0 0.000978 0.999999 0.000978
9.91343403 5.05940962 8.54028606 0 0 0 0.994969 -0.100035 0.005378
12.87670994 4.28416824 6.45507908 0 0 0 0.000978 0.999999 0.000978
5.91334295 4.67636967 5.35002804 0 0 0 0.989447 -0.117431 -0.084876
9.00380039 7.86335897 1.75738144 0 0 0 0.999960 0.000985 -0.008867
5.79609299 8.26583481 9.16919804 0 0 0 -0.885003 0.001319 0.465583
13.84579754 8.44338131 -0.19777989 0 0 0 0.000978 0.999999 0.000978
10.12281036 4.28416824 4.39072037 0 0 0 0.000978 0.999999 0.000978
7.11485958 4.28416824 4.27496910 0 0 0 0.000978 0.999999 0.000978
5.91362095 9.15476799 3.60062075 0 0 0 0.999999 0.000978 0.000978
8.91378880 6.66631746 -0.99468821 0 0 0 -0.999995 0.000979 -0.002938
12.84063244 4.85387707 1.75746441 0 0 0 -0.006883 0.000983 -0.999976
5.81362152 8.36305332 3.31313825 0 0 0 -0.999999 0.000978 0.000978
9.10492802 5.43515730 5.30252600 0 0 0 0.000978 0.000978 0.999999
7.33840132 10.08466148 6.38869762 0 0 0 0.406019 0.913864 0.001289
10.93443012 4.28416872 0.38032341 0 0 0 0.000978 0.999999 0.000978
5.91361952 7.18379354 5.61905289 0 0 0 0.999999 0.000978 0.000978
12.97372246 8.58843613 1.25455689 0 0 0 0.000978 -0.999999 0.000978
10.38921452 5.71735477 1.87293386 0 0 0 0.006883 0.000983 0.999976
10.40033817 7.66610003 1.73609710 0 0 0 0.000978 0.000978 -0.999999
5.91361856 8.92837906 7.09308434 0 0 0 0.999999 0.000978 0.000978
12.79844475 4.28416777 12.00375462 0 0 0 0.000978 0.999999 0.000978
10.15133095 4.28416872 -0.60107994 0 0 0 0.000978 0.999999 0.000978
10.72346973 6.37804222 1.77083814 0 0 0 -0.006883 0.000983 -0.999976
11.40476704 7.28104019 1.72868800 0 0 0 -0.985368 -0.170436 0.001129
9.65660763 4.36006021 6.55435133 0 0 0 0.098894 -0.992351 -0.073886
10.22629547 4.28416824 9.13615227 0 0 0 0.000978 0.999999 0.000978
12.73672295 6.47777557 -0.31591225 0 0 0 -0.999987 0.000981 0.004907
12.84420586 6.72517586 1.26585770 0 0 0 0.999987 0.000981 -0.004907
7.90376854 8.49624729 2.32353878 0 0 0 0.999976 0.000983 -0.006883
8.85084915 6.78758287 10.81546307 0 0 0 -0.999999 0.000978 0.000978
9.40269470 4.36006021 9.94879150 0 0 0 0.096224 -0.992801 0.071319
6.30547667 6.10574293 9.75092888 0 0 0 -0.088792 0.971709 0.218853
11.40840626 5.86675835 1.76651108 0 0 0 -0.006883 0.000983 -0.999976
9.14227486 8.58857346 2.62003493 0 0 0 0.000978 -0.999999 0.000978
5.89768267 7.75119352 2.56280684 0 0 0 0.000978 0.000978 -0.999999
9.46408844 6.63023949 1.87878251 0 0 0 0.006883 0.000983 0.999976
5.82719088 9.84852695 7.93357325 0 0 0 -0.999999 0.000978 0.000978
9.87728691 8.45052052 1.35765696 0 0 0 0.000978 -0.999999 0.000978
9.68637848 6.44799042 10.74058437 0 0 0 -0.000978 -0.000978 -0.999999
5.91923714 6.45654488 4.66889477 0 0 0 -0.999999 0.000978 -0.000978
5.81361485 6.93618584 9.90811825 0 0 0 -0.999999 0.000978 0.000978
11.66747761 8.30745029 -1.08270586 0 0 0 0.000978 0.999999 0.000978
9.39626980 6.75053883 1.77921033 0 0 0 -0.006883 0.000983 -0.999976
6.32468319 7.05405140 10.76723862 0 0 0 0.000978 -0.999999 0.000978
5.91923571 9.02293968 4.67356968 0 0 0 -0.999999 0.000978 -0.000978
7.97625637 8.58860874 2.69933295 0 0 0 0.000978 -0.999999 0.000978
13.87802315 8.44338131 1.42836118 0 0 0 0.000978 0.999999 0.000978
12.63407803 4.28416872 2.81376076 0 0 0 0.000978 0.999999 0.000978
13.58428764 8.58841896 0.63987124 0 0 0 0.000978 -0.999999 0.000978
9.91336823 5.05096245 6.23144627 0 0 0 0.991018 -0.100138 -0.088628
9.92698669 4.96709490 4.23535919 0 0 0 0.999999 0.000978 0.000978
9.28318787 5.95475006 5.85081196 0 0 0 0.069919 -0.440077 -0.895234
10.54152489 8.45049763 0.95346916 0 0 0 0.000978 -0.999999 0.000978
5.81361485 7.34221554 10.38980484 0 0 0 -0.999999 0.000978 0.000978
5.82719088 9.20663929 8.71714020 0 0 0 -0.999999 0.000978 0.000978
9.91336346 5.58876896 6.07462502 0 0 0 0.990745 -0.098265 -0.093641
8.84941578 5.19449091 5.91046524 0 0 0 0.094005 -0.105611 -0.989954
5.78260946 8.20533371 9.14360905 0 0 0 -0.885003 0.001319 0.465583
9.32453632 6.50773048 1.87965965 0 0 0 0.006883 0.000983 0.999976
6.86071825 4.36006021 7.24613953 0 0 0 0.063873 -0.997892 -0.011518
8.99998760 5.74592686 1.30108881 0 0 0 0.999976 0.000983 -0.006883
10.13842106 4.28416872 1.04643822 0 0 0 0.000978 0.999999 0.000978
9.51635933 4.28416872 1.19508743 0 0 0 0.000978 0.999999 0.000978
6.26074314 10.56406116 5.90605783 0 0 0 0.406019 0.913864 0.001289
10.87568474 8.58850956 2.20480442 0 0 0 0.000978 -0.999999 0.000978
10.10652351 5.90903807 1.77471733 0 0 0 -0.006883 0.000983 -0.999976
12.29309845 4.28416824 6.11920547 0 0 0 0.000978 0.999999 0.000978
5.81361389 9.95314312 11.13815880 0 0 0 -0.999999 0.000978 0.000978
6.52739620 4.28416920 2.74179649 0 0 0 0.000978 0.999999 0.000978
12.76405811 8.58844280 -1.05968416 0 0 0 0.000978 -0.999999 0.000978
7.38826942 4.28416824 8.03044701 0 0 0 0.000978 0.999999 0.000978
7.73786259 4.28416824 4.56057358 0 0 0 0.000978 0.999999 0.000978
8.00621319 4.28416920 0.68961716 0 0 0 0.000978 0.999999 0.000978
11.86520767 8.58847523 -0.28843498 0 0 0 0.000978 -0.999999 0.000978
11.31276512 7.51866722 1.73547828 0 0 0 0.985368 -0.170436 -0.001129
6.71693516 6.17337036 5.68420744 0 0 0 0.244946 0.273264 0.930230
12.92277527 8.58843708 0.70214319 0 0 0 0.000978 -0.999999 0.000978
10.37850094 4.96478987 1.77298462 0 0 0 -0.006883 0.000983 -0.999976
7.12932301 4.74624395 5.91051483 0 0 0 0.082377 -0.117185 -0.989688
10.40194702 8.58852577 1.44216919 0 0 0 0.000978 -0.999999 0.000978
12.76027775 8.26487923 1.08297133 0 0 0 -0.999960 0.000985 0.008867
10.96894073 8.30747509 -0.67794400 0 0 0 0.000978 0.999999 0.000978
12.71395874 7.89728928 -0.60456830 0 0 0 -0.999960 0.000985 0.008867
6.96268463 10.25179672 7.27442169 0 0 0 0.406019 0.913864 0.001289
7.58894157 4.28416824 8.07574654 0 0 0 0.000978 0.999999 0.000978
8.21550274 4.36006021 9.19191837 0 0 0 0.079961 -0.995685 0.047101
7.01063824 4.36006021 8.26122475 0 0 0 0.064007 -0.997883 0.011542
9.68410397 4.35540342 -0.71292019 0 0 0 0.000978 -0.999999 0.000978
5.81361485 7.58841419 9.83328629 0 0 0 -0.999999 0.000978 0.000978
10.42734909 4.28416872 2.31315613 0 0 0 0.000978 0.999999 0.000978
13.05286026 8.30740356 1.13183570 0 0 0 0.000978 0.999999 0.000978
7.56716633 4.28416824 5.98282814 0 0 0 0.000978 0.999999 0.000978
10.92139912 4.71221542 1.76955795 0 0 0 -0.006883 0.000983 -0.999976
11.82582569 4.28416824 8.82011318 0 0 0 0.000978 0.999999 0.000978
9.83065128 6.19139004 7.96568871 0 0 0 -0.999999 -0.000978 0.000978
5.91361904 7.20017719 6.58868647 0 0 0 0.999999 0.000978 0.000978
8.86963367 8.30754852 0.44875988 0 0 0 0.000978 0.999999 0.000978
11.96208477 4.28416824 9.29137707 0 0 0 0.000978 0.999999 0.000978
9.92698765 4.99380016 4.35181618 0 0 0 0.999999 0.000978 0.000978
7.81608295 5.33880806 5.91049480 0 0 0 0.091681 -0.107928 -0.989922
9.43338203 4.28416777 11.74619865 0 0 0 0.000978 0.999999 0.000978
5.81362104 9.39288521 3.38105059 0 0 0 -0.999999 0.000978 0.000978
13.35255909 4.28416824 6.95316219 0 0 0 0.000978 0.999999 0.000978
5.81361437 7.68741083 10.50996876 0 0 0 -0.999999 0.000978 0.000978
7.15064049 10.16819954 2.76030302 0 0 0 0.420274 0.907321 0.011783
8.95864677 5.57101202 -0.26588774 0 0 0 -0.076536 0.001048 -0.997066
12.69994736 7.48339653 -0.14007092 0 0 0 0.008478 -0.270069 0.962804
12.68469143 7.42521381 -0.16574520 0 0 0 0.999960 0.000985 -0.008867
6.23551702 10.58795452 12.41663170 0 0 0 0.420274 0.907321 -0.011783
5.81361532 8.52128315 9.65544319 0 0 0 -0.999999 0.000978 0.000978
12.73792744 5.83533573 -0.05988151 0 0 0 -0.999987 0.000981 0.004907
12.71291065 7.34805870 -0.72909188 0 0 0 -0.999960 0.000985 0.008867
6.75262690 5.51852703 5.61746216 0 0 0 0.554247 0.362455 -0.749290
9.08737183 6.85553408 0.70527053 0 0 0 0.000978 0.999999 0.000978
9.68692589 8.30751991 1.96311677 0 0 0 0.000978 0.999999 0.000978
12.84480381 5.53181696 1.39497590 0 0 0 0.999987 0.000981 -0.004907
11.18195343 4.28416872 0.74619293 0 0 0 0.000978 0.999999 0.000978
6.07163620 4.28416920 -0.50760841 0 0 0 0.000978 0.999999 0.000978
8.44536591 5.55288887 5.48038054 0 0 0 0.000978 -0.999999 0.000978
11.35683060 8.30746269 1.68567085 0 0 0 0.000978 0.999999 0.000978
5.81361294 9.75501633 11.93445301 0 0 0 -0.999999 0.000978 0.000978
10.14874935 4.35538578 -0.34455299 0 0 0 0.000978 -0.999999 0.000978
12.32847309 8.58845901 1.73791635 0 0 0 0.000978 -0.999999 0.000978
11.05046654 4.28416824 4.61437798 0 0 0 0.000978 0.999999 0.000978
6.96325922 10.25153828 8.15463066 0 0 0 0.406019 0.913864 0.001289
5.81361866 8.57830811 6.17397642 0 0 0 -0.999999 0.000978 0.000978
12.93510532 8.44341087 2.42531252 0 0 0 0.000978 0.999999 0.000978
12.45712471 8.30742359 1.01637471 0 0 0 0.000978 0.999999 0.000978
8.40331554 6.10574293 6.70616293 0 0 0 -0.059086 0.998248 -0.003110
5.81361961 6.69019222 5.24719810 0 0 0 -0.999999 0.000978 0.000978
6.94300842 4.28416920 -0.47982407 0 0 0 0.000978 0.999999 0.000978
8.56868172 6.10574293 8.65278530 0 0 0 -0.050916 0.998581 0.015587
10.63017082 8.44348907 -0.66215336 0 0 0 0.000978 0.999999 0.000978
7.20853901 4.28416824 9.70887375 0 0 0 0.000978 0.999999 0.000978
12.68084717 7.48123693 -0.62195122 0 0 0 0.999960 0.000985 -0.008867
8.81810188 4.28416920 -1.05636215 0 0 0 0.000978 0.999999 0.000978
6.64443302 4.28416824 7.41696453 0 0 0 0.000978 0.999999 0.000978
13.36927986 4.28416872 1.61180305 0 0 0 0.000978 0.999999 0.000978
5.91350174 5.37809324 10.89221954 0 0 0 0.989361 -0.110706 0.094391
8.57356453 5.44088888 4.98610115 0 0 0 0.000978 0.999999 0.000978
6.47881126 10.46704102 9.58136940 0 0 0 0.406019 0.913864 0.001289
13.02428055 5.97389603 -0.64276326 0 0 0 -0.690116 -0.308694 -0.654560
10.39080715 4.28416872 -0.70203018 0 0 0 0.000978 0.999999 0.000978
8.98051453 8.23743916 -1.00694180 0 0 0 0.999960 0.000985 -0.008867
5.81361866 9.80347824 6.34640741 0 0 0 -0.999999 0.000978 0.000978
9.41001225 8.45053673 0.76717377 0 0 0 0.000978 -0.999999 0.000978
6.28987122 6.42653656 5.68598938 0 0 0 -0.025169 -0.099581 0.994711
8.81610680 6.44743204 -0.35268050 0 0 0 -0.076536 0.001048 -0.997066
6.31569529 5.68927431 5.91053820 0 0 0 0.099287 -0.106295 -0.989365
5.91361856 7.26290846 7.12357950 0 0 0 0.999999 0.000978 0.000978
9.36415768 5.22886086 1.77938294 0 0 0 -0.006883 0.000983 -0.999976
8.71168900 5.70888901 5.79257059 0 0 0 0.000978 -0.999999 0.000978
10.19263172 8.49869537 3.00218415 0 0 0 -0.006883 0.000983 -0.999976
8.99659061 5.02968216 0.76139474 0 0 0 0.999976 0.000983 -0.006883
5.91361904 8.95670986 6.20775795 0 0 0 0.999999 0.000978 0.000978
7.41792822 4.28416824 3.67850113 0 0 0 0.000978 0.999999 0.000978
13.10186863 8.38806534 -0.48201776 0 0 0 -0.999889 0.000991 0.014865
12.59473038 8.37994385 2.13847876 0 0 0 -0.006883 0.000983 -0.999976
8.92255783 5.16218615 5.91046286 0 0 0 0.094005 -0.105611 -0.989954
8.45142460 4.30488777 2.98722219 0 0 0 0.000978 -0.999999 0.000978
13.02037430 4.28416824 5.67165756 0 0 0 0.000978 0.999999 0.000978
10.15558815 7.50035191 1.70307446 0 0 0 0.985368 -0.170436 -0.001129
5.91361618 7.05865622 9.39964294 0 0 0 0.999999 0.000978 0.000978
10.50482368 8.58852196 -0.28057757 0 0 0 0.000978 -0.999999 0.000978
5.84773970 10.08173180 3.64267182 0 0 0 0.000978 -0.999999 0.000978
7.13540125 4.36006021 6.73275042 0 0 0 0.067478 -0.997168 -0.033203
13.02992821 4.28416824 9.09899521 0 0 0 0.000978 0.999999 0.000978
5.83675480 8.48749447 3.69761467 0 0 0 0.000978 0.999999 0.000978
10.77338600 4.28416872 -0.95712662 0 0 0 0.000978 0.999999 0.000978
12.74469471 4.35528851 0.31653547 0 0 0 0.000978 -0.999999 0.000978
5.91362143 7.11397886 3.25127625 0 0 0 0.999999 0.000978 0.000978
7.03555059 4.36006021 9.16290092 0 0 0 0.065210 -0.997390 0.031001
9.86544895 7.30467844 1.72907436 0 0 0 0.985368 0.170436 -0.001129
12.07210636 8.58846760 1.86867535 0 0 0 0.000978 -0.999999 0.000978
8.98176956 4.28416920 -0.72034645 0 0 0 0.000978 0.999999 0.000978
6.22853994 10.57838821 5.53249121 0 0 0 0.406019 0.913864 0.001289
8.70072365 4.28416920 0.90445518 0 0 0 0.000978 0.999999 0.000978
12.76218796 8.33288097 1.30983388 0 0 0 -0.999960 0.000985 0.008867
13.01225281 8.30740452 0.59596324 0 0 0 0.000978 0.999999 0.000978
6.95181274 10.25662613 9.22093582 0 0 0 0.406019 0.913864 0.001289
13.34148216 4.28416824 7.44608402 0 0 0 0.000978 0.999999 0.000978
12.75374413 4.28416872 2.18662071 0 0 0 0.000978 0.999999 0.000978
10.69984913 4.28416824 9.96260738 0 0 0 0.000978 0.999999 0.000978
12.71330261 7.78040695 -0.95902485 0 0 0 -0.999960 0.000985 0.008867
13.85947132 4.28416872 0.44005394 0 0 0 0.000978 0.999999 0.000978
5.81361961 7.65994596 5.68416834 0 0 0 -0.999999 0.000978 0.000978
10.09684277 6.91935730 1.73566651 0 0 0 -0.985368 -0.170436 0.001129
10.56949806 4.28416872 -0.39573860 0 0 0 0.000978 0.999999 0.000978
9.78866386 7.74943113 1.71069956 0 0 0 0.985368 0.170436 -0.001129
9.84239292 6.39135504 6.53938532 0 0 0 -0.000978 0.000978 -0.999999
8.62597179 4.54259920 3.20252442 0 0 0 0.000978 0.000978 -0.999999
5.79797983 4.36006021 8.57407284 0 0 0 0.050399 -0.998716 0.005143
11.02837849 5.61147165 1.86890328 0 0 0 0.006883 0.000983 0.999976
5.91361570 7.30967522 9.75676537 0 0 0 0.999999 0.000978 0.000978
10.16692734 7.98385811 1.72244859 0 0 0 0.985368 -0.170436 -0.001129
5.81361818 8.97093487 7.59441710 0 0 0 -0.999999 0.000978 0.000978
5.96521378 4.28416824 6.19914436 0 0 0 0.000978 0.999999 0.000978
6.09800100 4.36006021 6.86611509 0 0 0 0.053755 -0.998149 -0.028458
5.91361380 8.96725273 11.08132839 0 0 0 0.999999 0.000978 0.000978
9.71277714 6.10574293 6.54660702 0 0 0 0.015132 0.999738 -0.017150
5.88720179 7.64958382 4.66222668 0 0 0 0.000978 0.000978 0.999999
7.15886688 10.08173180 10.78739738 0 0 0 0.000978 -0.999999 0.000978
11.66684055 8.30745029 -1.02418888 0 0 0 0.000978 0.999999 0.000978
9.57878685 4.28416777 10.84921646 0 0 0 0.000978 0.999999 0.000978
6.16196537 10.08173180 1.84232402 0 0 0 0.000978 -0.999999 0.000978
6.69230700 6.10574293 9.63128757 0 0 0 -0.081494 0.979146 0.186098
5.91334772 5.45190287 5.52056170 0 0 0 0.989117 -0.108604 -0.099262
5.77256298 10.78121853 9.07905483 0 0 0 0.406019 0.913864 0.001289
8.99252510 5.60606241 0.11323026 0 0 0 0.999976 0.000983 -0.006883
6.43848372 4.36006021 10.71898365 0 0 0 0.057488 -0.996812 0.055318
8.31096649 4.28416824 4.87622261 0 0 0 0.000978 0.999999 0.000978
12.88957024 4.28416824 10.33718586 0 0 0 0.000978 0.999999 0.000978
9.24930573 5.38214684 10.82681084 0 0 0 0.101181 -0.101181 0.989709
8.61334229 4.28416777 12.03495026 0 0 0 0.000978 0.999999 0.000978
5.91361856 8.43799782 7.10043144 0 0 0 0.999999 0.000978 0.000978
13.44493389 8.58842182 -0.60041106 0 0 0 0.000978 -0.999999 0.000978
10.65808487 4.35536718 0.03278619 0 0 0 0.000978 -0.999999 0.000978
12.71232414 7.96559429 1.63098633 0 0 0 0.008478 -0.270069 0.962804
9.16643429 5.09752703 5.91045570 0 0 0 0.094028 -0.103315 -0.990194
7.14799881 5.65699911 10.82687092 0 0 0 0.103935 -0.103935 0.989138
8.88981342 5.50606632 -0.31786883 0 0 0 -0.999976 0.000983 0.006883
9.78434372 4.35540009 1.14024019 0 0 0 0.000978 -0.999999 0.000978
11.97495937 4.28416824 10.17406845 0 0 0 0.000978 0.999999 0.000978
5.82316256 4.36006021 3.85404491 0 0 0 0.080057 -0.993386 -0.082312
9.65128613 7.02012777 1.70256579 0 0 0 -0.000978 0.000978 0.999999
6.39996767 10.08173180 4.63583946 0 0 0 0.000978 -0.999999 0.000978
7.89009190 8.47151184 -0.03788096 0 0 0 0.999987 0.000981 -0.004907
5.91361380 7.10884571 11.17020416 0 0 0 0.999999 0.000978 0.000978
12.74368668 8.29453278 -0.88645875 0 0 0 -0.999960 0.000985 0.008867
8.05231953 4.28416920 1.48651695 0 0 0 0.000978 0.999999 0.000978
8.69055653 4.28416872 2.81841278 0 0 0 0.000978 0.999999 0.000978
6.17180872 4.36006021 10.22589397 0 0 0 0.054533 -0.997641 0.041702
9.74344063 8.45052528 1.81935358 0 0 0 0.000978 -0.999999 0.000978
10.23783207 4.28416872 2.12659645 0 0 0 0.000978 0.999999 0.000978
5.81361961 6.72374153 5.35883331 0 0 0 -0.999999 0.000978 0.000978
11.51821518 8.58848667 1.84507215 0 0 0 0.000978 -0.999999 0.000978
5.91361618 10.09308147 8.86727810 0 0 0 0.999999 0.000978 0.000978
8.69733715 5.66821957 -0.34353843 0 0 0 -0.076536 0.001048 -0.997066
11.05208015 8.45047951 0.66521311 0 0 0 0.000978 -0.999999 0.000978
6.58116674 10.42150784 9.48319626 0 0 0 0.406019 0.913864 0.001289
9.00752544 8.44354534 1.40835190 0 0 0 0.000978 0.999999 0.000978
6.72238684 10.35870171 4.93910122 0 0 0 0.420274 0.907321 0.011783
11.12349224 4.28416872 0.93413162 0 0 0 0.000978 0.999999 0.000978
5.81362200 6.19759607 2.75916958 0 0 0 -0.999999 0.000978 0.000978
9.47076893 5.90888882 5.89345312 0 0 0 0.000978 0.999999 0.000978
6.44270611 10.08173180 6.96817780 0 0 0 0.000978 -0.999999 0.000978
9.02578449 6.93797445 1.71192706 0 0 0 -0.988665 0.150135 0.001112
12.76885796 8.58844376 2.10425544 0 0 0 0.000978 -0.999999 0.000978
8.79682255 4.28416824 4.64678192 0 0 0 0.000978 0.999999 0.000978
8.41705513 8.44356441 0.77126837 0 0 0 0.000978 0.999999 0.000978
13.76494980 4.28416824 7.78699398 0 0 0 0.000978 0.999999 0.000978
11.35131454 4.28416824 6.08381653 0 0 0 0.000978 0.999999 0.000978
5.84316635 6.11960506 5.72268486 0 0 0 0.000978 -0.999999 0.000978
12.76254654 8.44341469 -0.29236549 0 0 0 0.000978 0.999999 0.000978
8.46770859 6.22943974 5.99851847 0 0 0 0.000978 0.000978 0.999999
8.81673908 5.25572634 4.70252562 0 0 0 0.000978 0.000978 0.999999
9.93151569 4.28416824 4.88205719 0 0 0 0.000978 0.999999 0.000978
10.49847603 4.57742834 1.77222097 0 0 0 -0.006883 0.000983 -0.999976
13.02280045 8.44340611 0.63705760 0 0 0 0.000978 0.999999 0.000978
9.32469368 6.59026384 1.77965832 0 0 0 -0.006883 0.000983 -0.999976
6.41811752 4.28416824 9.51587582 0 0 0 0.000978 0.999999 0.000978
10.44033527 8.44349575 1.59161997 0 0 0 0.000978 0.999999 0.000978
7.31149101 10.08173180 11.10021782 0 0 0 0.000978 -0.999999 0.000978
7.58353901 4.28416824 10.06058693 0 0 0 0.000978 0.999999 0.000978
10.19853783 4.28416777 10.94034004 0 0 0 0.000978 0.999999 0.000978
8.60687447 4.28416824 7.47778702 0 0 0 0.000978 0.999999 0.000978
9.68213749 8.58855152 0.94963098 0 0 0 0.000978 -0.999999 0.000978
7.09613848 10.08173180 9.32526588 0 0 0 0.000978 -0.999999 0.000978
9.08693600 8.07667732 1.78214169 0 0 0 -0.008867 0.000985 -0.999960
7.33984184 10.08173180 4.41099596 0 0 0 0.000978 -0.999999 0.000978
11.61001968 8.44345570 1.76702583 0 0 0 0.000978 0.999999 0.000978
9.70599842 5.12888861 4.19491339 0 0 0 0.000978 0.999999 0.000978
11.60651398 4.28416824 7.68440247 0 0 0 0.000978 0.999999 0.000978
6.01117325 4.28416824 7.29945850 0 0 0 0.000978 0.999999 0.000978
5.90990067 6.51330328 3.69941258 0 0 0 0.999999 0.000978 0.000978
6.93080235 4.28416824 6.12971306 0 0 0 0.000978 0.999999 0.000978
10.30331326 4.28416824 7.32044125 0 0 0 0.000978 0.999999 0.000978
5.91361856 6.50239992 7.37566757 0 0 0 0.999999 0.000978 0.000978
7.28234911 6.10574293 6.41923618 0 0 0 -0.126056 0.992008 0.005481
9.91045952 8.58854771 2.89928913 0 0 0 0.000978 -0.999999 0.000978
10.51416206 4.37155581 1.77211797 0 0 0 -0.006883 0.000983 -0.999976
9.42128181 6.86935425 1.67028582 0 0 0 -0.000978 0.000978 0.999999
12.68882275 8.30741596 2.05460715 0 0 0 0.000978 0.999999 0.000978
7.99256611 4.36006021 7.96257639 0 0 0 0.077179 -0.996990 0.007401
6.86659527 10.08173180 11.29062271 0 0 0 0.000978 -0.999999 0.000978
9.05499172 7.82202768 -0.50257677 0 0 0 -0.999960 0.000985 0.008867
9.44082832 8.58856010 1.74363565 0 0 0 0.000978 -0.999999 0.000978
8.50758362 5.81617832 4.47810984 0 0 0 0.000978 0.000978 0.999999
7.55695105 6.10574293 7.76106548 0 0 0 -0.108256 0.993988 0.016402
6.30752325 10.08173180 2.73086119 0 0 0 0.000978 -0.999999 0.000978
5.80115795 4.36006021 11.75248051 0 0 0 0.062452 -0.995952 0.064644
12.60066891 8.30741882 -0.02220490 0 0 0 0.000978 0.999999 0.000978
10.90668011 8.58850861 1.91164875 0 0 0 0.000978 -0.999999 0.000978
9.08468342 4.36006021 7.33035326 0 0 0 0.090878 -0.995283 -0.033943
7.99200869 4.36006021 9.78095055 0 0 0 0.078261 -0.995347 0.056216
11.14903927 4.28416824 4.55750656 0 0 0 0.000978 0.999999 0.000978
9.48474216 5.59688902 5.17966318 0 0 0 0.000978 0.999999 0.000978
5.96527386 10.69549656 7.46915674 0 0 0 0.406019 0.913864 0.001289
6.75355434 6.09315586 5.62101984 0 0 0 0.541437 0.538064 -0.646014
11.15990067 8.58850002 1.64119005 0 0 0 0.000978 -0.999999 0.000978
13.02084732 4.28416872 2.39377785 0 0 0 0.000978 0.999999 0.000978
9.26609135 8.30753422 1.21682787 0 0 0 0.000978 0.999999 0.000978
12.75268269 4.28416872 -0.44022560 0 0 0 0.000978 0.999999 0.000978
11.46718884 7.21777534 1.73452246 0 0 0 0.985368 0.170436 -0.001129
5.84358120 6.10574293 9.83899689 0 0 0 0.000978 -0.999999 0.000978
12.49076939 6.38403177 1.85970140 0 0 0 0.006883 0.000983 0.999976
11.45254326 4.35533667 -0.57295394 0 0 0 0.000978 -0.999999 0.000978
12.71036053 6.94943571 -0.84047395 0 0 0 -0.008478 0.270069 -0.962804
12.75770378 8.32824039 0.77756310 0 0 0 -0.999960 0.000985 0.008867
10.72203159 4.28416872 -0.33054352 0 0 0 0.000978 0.999999 0.000978
12.27860260 8.58845997 -0.00281167 0 0 0 0.000978 -0.999999 0.000978
12.02337742 4.42782164 1.76260698 0 0 0 -0.006883 0.000983 -0.999976
13.40871716 4.28416824 4.37287521 0 0 0 0.000978 0.999999 0.000978
8.96658325 8.30754471 0.10024294 0 0 0 0.000978 0.999999 0.000978
5.91245794 6.47267771 2.56281161 0 0 0 0.000978 0.000978 -0.999999
6.55189371 10.08173180 7.92831087 0 0 0 0.000978 -0.999999 0.000978
9.99808502 4.28416872 -0.25257111 0 0 0 0.000978 0.999999 0.000978
9.11382866 4.28416777 10.66016483 0 0 0 0.000978 0.999999 0.000978
8.01962662 8.44357491 -0.52720094 0 0 0 0.000978 0.999999 0.000978
5.81361818 7.90722990 6.98256350 0 0 0 -0.999999 0.000978 0.000978
12.73794651 5.07328939 -0.05419064 0 0 0 -0.999987 0.000981 0.004907
9.47052193 5.28175259 4.70252562 0 0 0 0.000978 0.000978 0.999999
13.36085033 4.28416872 1.77035332 0 0 0 0.000978 0.999999 0.000978
10.53922844 8.30749035 0.45933878 0 0 0 0.000978 0.999999 0.000978
12.84287739 6.67371035 0.98493493 0 0 0 0.999987 0.000981 -0.004907
5.91344357 6.11215687 9.06993008 0 0 0 0.999999 0.000978 0.000978
6.55517626 10.33722591 1.64201474 0 0 0 0.001219 0.956644 -0.291258
12.09887028 4.35531235 -0.84168959 0 0 0 0.000978 -0.999999 0.000978
9.97616196 8.44351196 0.88113594 0 0 0 0.000978 0.999999 0.000978
5.91361952 7.79613209 5.28894377 0 0 0 0.999999 0.000978 0.000978
6.49430180 4.28416824 8.47394848 0 0 0 0.000978 0.999999 0.000978
5.91361475 8.68970680 10.53979492 0 0 0 0.999999 0.000978 0.000978
5.91361856 7.41866541 7.12251282 0 0 0 0.999999 0.000978 0.000978
6.70710707 4.57244921 10.82688427 0 0 0 0.084876 -0.117431 0.989447
12.88644123 8.44341087 0.92576212 0 0 0 0.000978 0.999999 0.000978
5.91361475 6.73942995 10.58182621 0 0 0 0.999999 0.000978 0.000978
8.75998402 4.92586756 -0.25597861 0 0 0 0.039791 -0.863045 0.503557
5.91362143 6.91861916 3.28191423 0 0 0 0.999999 0.000978 0.000978
5.91361856 8.47454453 6.97380638 0 0 0 0.999999 0.000978 0.000978
9.44383430 8.45053577 -0.66513991 0 0 0 0.000978 -0.999999 0.000978
7.82598495 6.40081024 5.91572571 0 0 0 -0.999999 0.000978 0.000978
11.59638882 8.33205891 1.67193222 0 0 0 -0.000978 0.000978 0.999999
10.48241329 4.28416872 2.31250954 0 0 0 0.000978 0.999999 0.000978
9.76636410 4.28416872 1.29331017 0 0 0 0.000978 0.999999 0.000978
6.79480696 10.08173180 6.95054865 0 0 0 0.000978 -0.999999 0.000978
5.87677145 6.10709190 4.46874428 0 0 0 0.000978 -0.999999 0.000978
10.00979424 5.01251984 1.77530944 0 0 0 -0.006883 0.000983 -0.999976
8.33973598 4.36006021 8.14603233 0 0 0 0.081897 -0.996595 0.009572
11.47383118 8.58848953 2.31580353 0 0 0 0.000978 -0.999999 0.000978
12.71148300 7.75083256 0.00428129 0 0 0 -0.008478 -0.270069 -0.962804
9.12080956 6.93741989 1.70451081 0 0 0 0.985368 -0.170436 -0.001129
9.10340500 4.28416824 6.22057629 0 0 0 0.000978 0.999999 0.000978
7.03483248 5.99479771 10.89013386 0 0 0 -0.045976 -0.052391 0.997568
6.92857170 4.65243101 5.91052055 0 0 0 0.082377 -0.117185 -0.989688
5.97957134 4.66450071 10.82690525 0 0 0 0.080234 -0.119770 0.989554
9.70526218 8.45052624 -0.72400934 0 0 0 0.000978 -0.999999 0.000978
5.91361332 8.38267136 11.69681168 0 0 0 0.999999 0.000978 0.000978
12.26639843 4.28416824 4.86556244 0 0 0 0.000978 0.999999 0.000978
8.74099064 5.68971825 5.30252600 0 0 0 0.000978 0.000978 -0.999999
6.61112499 10.08173180 6.71722937 0 0 0 0.000978 -0.999999 0.000978
9.46259594 6.72323847 10.74025822 0 0 0 -0.000978 -0.000978 -0.999999
6.68783140 10.37408257 2.38762116 0 0 0 0.420274 0.907321 0.011783
5.81362152 9.34531689 3.08857012 0 0 0 -0.999999 0.000978 0.000978
6.66865206 4.36006021 6.08643103 0 0 0 0.059649 -0.996686 -0.055311
9.12064362 4.28416824 7.55632782 0 0 0 0.000978 0.999999 0.000978
13.95238400 8.58840942 0.65192986 0 0 0 0.000978 -0.999999 0.000978
6.82750416 6.10574293 7.55432034 0 0 0 -0.136743 0.989374 0.049411
10.35904026 4.28416777 10.87169933 0 0 0 0.000978 0.999999 0.000978
5.81361914 9.27597713 5.72549582 0 0 0 -0.999999 0.000978 0.000978
9.15940666 4.86488104 3.80252504 0 0 0 0.000978 0.000978 -0.999999
13.96550369 8.53079987 0.60063171 0 0 0 -0.999889 0.000991 0.014865
5.91159821 4.38309383 4.14266109 0 0 0 0.938135 -0.332284 -0.097417
7.23969316 6.91786098 10.74002838 0 0 0 -0.000978 -0.000978 -0.999999
9.85178089 5.42287493 5.00252485 0 0 0 0.000978 0.000978 0.999999
5.81361818 7.30824280 6.85351753 0 0 0 -0.999999 0.000978 0.000978
12.39029217 4.35530233 0.25471687 0 0 0 0.000978 -0.999999 0.000978
7.40115929 4.36006021 8.88129425 0 0 0 0.069614 -0.997090 0.031059
5.90990114 6.63152313 4.12953949 0 0 0 0.999999 0.000978 0.000978
8.04970074 6.10574293 10.57416821 0 0 0 -0.023744 0.989351 0.143597
13.43940830 8.44339275 -0.37517828 0 0 0 0.000978 0.999999 0.000978
9.62530518 4.28416777 11.97316456 0 0 0 0.000978 0.999999 0.000978
9.05201912 7.49921703 1.55699360 0 0 0 -0.008218 -0.219533 -0.975570
9.84064007 6.69430399 7.79812431 0 0 0 0.000978 0.000978 0.999999
7.54436922 4.28416777 12.30780888 0 0 0 0.000978 0.999999 0.000978
11.69772720 8.48120689 2.99240565 0 0 0 -0.006883 0.000983 -0.999976
12.75358200 8.24453449 0.28816819 0 0 0 -0.999960 0.000985 0.008867
5.80256844 10.01718426 2.45483494 0 0 0 0.000978 0.000978 -0.999999
9.65937042 6.10574293 8.16321087 0 0 0 0.012857 0.999917 0.000989
11.63895988 4.28416824 5.86176586 0 0 0 0.000978 0.999999 0.000978
6.33818102 10.52961159 6.19531679 0 0 0 0.406019 0.913864 0.001289
5.91361904 8.48074818 6.40058708 0 0 0 0.999999 0.000978 0.000978
7.90374660 4.28416824 6.51064587 0 0 0 0.000978 0.999999 0.000978
10.45379639 6.14336109 1.77253318 0 0 0 -0.006883 0.000983 -0.999976
12.81054497 8.58844185 1.44990635 0 0 0 0.000978 -0.999999 0.000978
6.26903725 8.12733555 5.61644363 0 0 0 -0.575006 0.006829 -0.818121
8.49890518 5.55374384 10.82683182 0 0 0 0.101181 -0.101181 0.989709
13.55814648 8.58841896 0.85200143 0 0 0 0.000978 -0.999999 0.000978
8.89482594 4.48653746 0.48170698 0 0 0 -0.999976 0.000983 0.006883
6.11598921 10.08173180 3.19594765 0 0 0 0.000978 -0.999999 0.000978
6.39893866 6.10574293 8.78271294 0 0 0 -0.113653 0.981323 0.155203
5.81361818 8.43535995 7.10258913 0 0 0 -0.999999 0.000978 0.000978
12.94612598 8.58843708 -0.07147741 0 0 0 0.000978 -0.999999 0.000978
8.80178261 7.06535196 10.72745419 0 0 0 -0.000978 -0.000978 -0.999999
9.06206036 7.52696371 1.24136114 0 0 0 0.008218 0.219533 0.975570
6.09637594 6.10574293 7.48340416 0 0 0 -0.155958 0.982897 0.097927
8.04005051 4.28416824 10.25146008 0 0 0 0.000978 0.999999 0.000978
10.40748310 4.28416824 8.43805408 0 0 0 0.000978 0.999999 0.000978
6.81549263 10.08173180 7.99238682 0 0 0 0.000978 -0.999999 0.000978
8.43164444 7.02435637 5.86721087 0 0 0 0.001325 0.878249 -0.478202
8.41765499 4.36006021 6.71537209 0 0 0 0.082670 -0.995342 -0.049602
11.43776131 4.28416872 1.24307823 0 0 0 0.000978 0.999999 0.000978
7.69475746 4.36006021 6.71877289 0 0 0 0.072654 -0.996550 -0.040122
8.57535934 8.58858967 1.38243973 0 0 0 0.000978 -0.999999 0.000978
13.03990746 4.28416777 12.11133957 0 0 0 0.000978 0.999999 0.000978
5.91361952 8.89704990 5.08146381 0 0 0 0.999999 0.000978 0.000978
6.41137314 4.28416777 12.10805893 0 0 0 0.000978 0.999999 0.000978
12.13740063 8.45044231 -0.09917331 0 0 0 0.000978 -0.999999 0.000978
12.86769581 4.28416872 3.40840530 0 0 0 0.000978 0.999999 0.000978
10.93692780 8.30747604 -0.60397923 0 0 0 0.000978 0.999999 0.000978
9.17530251 4.28416777 12.03701878 0 0 0 0.000978 0.999999 0.000978
12.51556778 6.32992411 1.75954211 0 0 0 -0.006883 0.000983 -0.999976
12.73743820 6.46840572 -0.16458480 0 0 0 -0.999987 0.000981 0.004907
5.91332006 5.72701311 4.55846643 0 0 0 0.989662 -0.101414 -0.101414
5.91361523 9.55716515 10.18262672 0 0 0 0.999999 0.000978 0.000978
12.49359894 4.83656168 1.75965130 0 0 0 -0.006883 0.000983 -0.999976
6.08852148 10.64066601 8.33446980 0 0 0 0.406019 0.913864 0.001289
9.91431427 6.17489004 6.15332985 0 0 0 0.999999 0.000978 -0.000978
7.40451813 4.28416824 7.87493992 0 0 0 0.000978 0.999999 0.000978
7.03564548 4.36006021 9.24922276 0 0 0 0.065205 -0.997321 0.033137
5.91362143 8.97970009 2.96163273 0 0 0 0.999999 0.000978 0.000978
5.81362152 9.82348347 2.91689110 0 0 0 -0.999999 0.000978 0.000978
12.35836411 7.59027719 1.70227945 0 0 0 -0.000978 0.000978 0.999999
5.81361580 7.99070263 9.50630760 0 0 0 -0.999999 0.000978 0.000978
9.91367149 6.71599150 6.17560387 0 0 0 0.999999 0.000978 -0.000978
10.69403458 4.91143990 1.87099683 0 0 0 0.006883 0.000983 0.999976
5.88970137 7.88383532 3.95406461 0 0 0 -0.951115 -0.308835 0.001230
7.90095711 5.98827124 10.89010906 0 0 0 -0.001038 -0.063348 0.997991
10.65751553 8.44348812 2.05761790 0 0 0 0.000978 0.999999 0.000978
5.89418840 10.10579967 4.23548698 0 0 0 0.000978 0.999999 0.000978
10.96856594 4.28416872 -0.35847282 0 0 0 0.000978 0.999999 0.000978
10.81429958 8.30748081 0.58479261 0 0 0 0.000978 0.999999 0.000978
8.38573551 6.10574293 7.50312805 0 0 0 -0.061405 0.998099 0.005204
11.22808456 8.44347095 2.55555224 0 0 0 0.000978 0.999999 0.000978
12.74424171 8.27636909 -0.82049835 0 0 0 -0.999960 0.000985 0.008867
5.91361856 6.98832703 6.83832407 0 0 0 0.999999 0.000978 0.000978
8.92403889 8.44354820 -1.02506268 0 0 0 0.000978 0.999999 0.000978
7.88999367 6.10574293 9.10261250 0 0 0 -0.067394 0.995448 0.067394
5.91362143 9.29589462 3.34920597 0 0 0 0.999999 0.000978 0.000978
9.03826904 7.03387356 -0.43575546 0 0 0 0.008218 0.219533 0.975570
9.40219402 8.58856106 1.21358132 0 0 0 0.000978 -0.999999 0.000978
6.36635351 6.10574293 10.44120312 0 0 0 -0.066652 0.964565 0.255289
5.91922140 7.59791470 12.09256649 0 0 0 -0.999999 0.000978 -0.000978
8.05529690 8.58860302 1.26528072 0 0 0 0.000978 -0.999999 0.000978
9.91338539 5.35910320 6.83628654 0 0 0 0.992849 -0.100527 -0.064383
5.83288431 9.18895340 4.06955862 0 0 0 -0.999999 0.000978 -0.000978
13.22463131 8.58843327 2.98174810 0 0 0 0.000978 -0.999999 0.000978
5.81362152 9.84390926 3.18171620 0 0 0 -0.999999 0.000978 0.000978
5.81362009 7.08545256 4.99403954 0 0 0 -0.999999 0.000978 0.000978
5.91329098 5.11618614 3.53667283 0 0 0 0.989662 -0.101414 -0.101414
11.73938560 8.58847904 0.67104340 0 0 0 0.000978 -0.999999 0.000978
5.92140245 6.10574293 7.84253502 0 0 0 -0.148794 0.980075 0.131578
5.91361856 7.28917027 7.33813763 0 0 0 0.999999 0.000978 0.000978
9.75989246 4.28416777 11.29684639 0 0 0 0.000978 0.999999 0.000978
5.81361818 8.55705643 7.52452564 0 0 0 -0.999999 0.000978 0.000978
5.83816481 6.11955214 10.97525311 0 0 0 0.000978 -0.999999 0.000978
11.78760815 4.28416872 0.12075615 0 0 0 0.000978 0.999999 0.000978
5.91564035 8.18104267 3.58489895 0 0 0 0.000978 0.000978 0.999999
8.89613438 4.97860575 5.91046381 0 0 0 0.094005 -0.105611 -0.989954
9.43400192 4.36006021 6.59413528 0 0 0 0.096023 -0.992991 -0.068911
9.92235947 7.09322071 9.63027573 0 0 0 0.999999 -0.000978 -0.000978
6.47227859 6.10574293 6.76946974 0 0 0 -0.164892 0.985890 0.028827
5.81361341 7.12552834 11.56175900 0 0 0 -0.999999 0.000978 0.000978
9.48662376 6.06488895 6.13916588 0 0 0 0.000978 0.999999 0.000978
7.12811852 4.28416777 11.25735950 0 0 0 0.000978 0.999999 0.000978
9.53048706 5.39688921 5.10654879 0 0 0 0.000978 -0.999999 0.000978
8.52766228 5.83150196 5.90252638 0 0 0 0.000978 0.000978 0.999999
9.46905708 4.36006021 8.34411430 0 0 0 0.097488 -0.995232 0.003214
5.84660482 9.74084568 2.55483603 0 0 0 0.000978 0.000978 0.999999
5.89276409 8.40701294 2.56280446 0 0 0 0.000978 0.000978 -0.999999
9.49808025 4.85611773 1.77853155 0 0 0 -0.006883 0.000983 -0.999976
9.14962769 6.10574293 10.14355946 0 0 0 -0.009204 0.999162 0.039885
7.34623957 5.08577061 10.82686615 0 0 0 0.096749 -0.106075 0.989640
12.61000729 8.58844852 -0.42797112 0 0 0 0.000978 -0.999999 0.000978
8.45403290 5.00679874 5.91047668 0 0 0 0.091681 -0.107928 -0.989922
5.85767269 6.12098694 12.12776375 0 0 0 0.000978 0.000978 -0.999999
6.17772055 10.08173180 7.42150879 0 0 0 0.000978 -0.999999 0.000978
12.68450451 7.06027937 -0.88766247 0 0 0 0.008478 0.270069 0.962804
10.27776718 7.54244232 1.70995593 0 0 0 -0.985368 -0.170436 0.001129
10.40378094 4.28416872 2.14189148 0 0 0 0.000978 0.999999 0.000978
12.71689987 7.22154045 0.83844316 0 0 0 0.008478 -0.270069 0.962804
5.91333342 5.76630306 5.01748848 0 0 0 0.989138 -0.103935 -0.103935
10.90905666 4.86934566 1.76963878 0 0 0 -0.006883 0.000983 -0.999976
11.07186413 5.75938654 1.76863015 0 0 0 -0.006883 0.000983 -0.999976
9.27568340 6.10574293 10.65732861 0 0 0 0.007285 0.998086 0.061405
13.30406475 4.28416824 5.68328857 0 0 0 0.000978 0.999999 0.000978
11.37201881 4.35534000 -0.72908258 0 0 0 0.000978 -0.999999 0.000978
9.91345882 5.85216141 9.38569355 0 0 0 0.994277 -0.098652 0.041013
8.96014309 4.93122911 -0.36381760 0 0 0 -0.076536 0.001048 -0.997066
5.91361380 8.60115528 11.58308411 0 0 0 0.999999 0.000978 0.000978
9.04549217 6.95320463 -0.02623574 0 0 0 -0.008218 0.219533 -0.975570
8.38257790 4.51339436 10.82683563 0 0 0 0.094198 -0.108153 0.989661
10.08667469 4.35538864 0.85739732 0 0 0 0.000978 -0.999999 0.000978
11.71839809 8.45045662 0.87500733 0 0 0 0.000978 -0.999999 0.000978
5.88226414 8.99107552 4.55532026 0 0 0 -0.001218 -0.286119 0.958193
8.99448204 5.58570719 0.42479360 0 0 0 0.999976 0.000983 -0.006883
11.70376587 6.80874491 1.76466811 0 0 0 -0.006883 0.000983 -0.999976
5.82504034 6.11954975 11.23082447 0 0 0 0.000978 -0.999999 0.000978
8.86236477 4.35465765 3.20252442 0 0 0 0.000978 0.000978 0.999999
10.79248333 4.28416824 7.74446678 0 0 0 0.000978 0.999999 0.000978
10.99290466 8.58850479 -0.86470723 0 0 0 0.000978 -0.999999 0.000978
9.44022846 6.10574293 10.64159679 0 0 0 0.011361 0.998756 0.048543
11.10337734 4.28416824 7.74398041 0 0 0 0.000978 0.999999 0.000978
5.81361961 8.43451214 5.32689857 0 0 0 -0.999999 0.000978 0.000978
5.91333485 5.13536978 5.06233454 0 0 0 0.989393 -0.108379 -0.096725
9.00154495 4.51350451 1.55081105 0 0 0 0.999976 0.000983 -0.006883
10.63702393 8.45049477 0.73190022 0 0 0 0.000978 -0.999999 0.000978
5.91361904 6.92848110 6.30766535 0 0 0 0.999999 0.000978 0.000978
8.28123283 5.86415577 10.82683945 0 0 0 0.101181 -0.101181 0.989709
8.82783318 8.58858109 0.67466187 0 0 0 0.000978 -0.999999 0.000978
11.35854721 4.35534048 -0.24119973 0 0 0 0.000978 -0.999999 0.000978
5.82719088 9.62516975 9.03420448 0 0 0 -0.999999 0.000978 0.000978
9.42665863 8.58856106 2.37681651 0 0 0 0.000978 -0.999999 0.000978
8.11343861 8.44357777 3.01170754 0 0 0 0.000978 0.999999 0.000978
5.83526373 9.24259567 12.04360008 0 0 0 0.000978 0.000978 0.999999
13.73402405 4.28416872 -1.08380890 0 0 0 0.000978 0.999999 0.000978
9.91349888 6.86310482 9.81236076 0 0 0 0.999999 0.000978 -0.000978
6.56147146 10.43026829 9.91184235 0 0 0 0.406019 0.913864 0.001289
8.91136932 4.50200605 2.90252399 0 0 0 0.000978 0.000978 -0.999999
6.31157684 7.07155514 5.61829901 0 0 0 0.471540 0.378197 -0.796629
8.52183437 4.50158310 2.93148994 0 0 0 0.999999 0.000978 -0.000978
7.60566187 4.36006021 8.75964165 0 0 0 0.071899 -0.996926 0.031120
5.81361485 9.85966492 10.10223675 0 0 0 -0.999999 0.000978 0.000978
10.96597576 8.44347763 1.58577609 0 0 0 0.000978 0.999999 0.000978
8.99159431 5.52079821 -0.03475648 0 0 0 0.999976 0.000983 -0.006883
8.89053631 5.67415380 -0.20313603 0 0 0 -0.999976 0.000983 0.006883
6.14215040 10.61679935 11.24611473 0 0 0 0.406019 0.913864 0.001289
9.50387383 4.28416824 9.73631859 0 0 0 0.000978 0.999999 0.000978
9.11460114 5.59688902 5.29896832 0 0 0 0.000978 0.999999 0.000978
11.41304493 4.28416824 7.67238045 0 0 0 0.000978 0.999999 0.000978
5.91361904 7.05544758 5.89984417 0 0 0 0.999999 0.000978 0.000978
6.27912378 4.28416824 4.24793053 0 0 0 0.000978 0.999999 0.000978
5.82505798 7.56211185 2.47995687 0 0 0 0.999999 0.000978 0.000978
9.02483845 7.19201994 0.10765979 0 0 0 0.999960 0.000985 -0.008867
5.91361475 8.17733192 10.37005424 0 0 0 0.999999 0.000978 0.000978
9.51615047 5.78112793 1.77843583 0 0 0 -0.006883 0.000983 -0.999976
8.03381157 4.28416824 5.20735741 0 0 0 0.000978 0.999999 0.000978
5.91360474 8.77546501 2.48763251 0 0 0 0.999999 0.000978 0.000978
7.76338243 4.36006021 6.40541267 0 0 0 0.073554 -0.995718 -0.055989
12.69109154 8.14654922 1.57647395 0 0 0 0.008867 0.000985 0.999960
11.64433384 4.28416824 5.90579128 0 0 0 0.000978 0.999999 0.000978
9.58841705 7.52435923 1.70251870 0 0 0 -0.000978 0.000978 0.999999
6.39359093 4.28416824 4.53885078 0 0 0 0.000978 0.999999 0.000978
7.27531481 10.11271381 9.74692345 0 0 0 0.406019 0.913864 0.001289
8.99862194 6.90061665 1.73216367 0 0 0 0.999999 0.000978 -0.000978
5.81913614 8.03043556 4.67386913 0 0 0 0.999999 0.000978 0.000978
12.69151115 4.28416824 5.74574184 0 0 0 0.000978 0.999999 0.000978
9.94231129 6.10574293 9.91265774 0 0 0 0.098497 0.992893 0.066797
6.71333313 4.36006021 9.68002796 0 0 0 0.061067 -0.997429 0.037497
5.81361532 6.12882996 9.59379292 0 0 0 -0.999999 0.000978 0.000978
13.82788277 4.28416824 5.44729233 0 0 0 0.000978 0.999999 0.000978
8.10986137 8.58860207 2.31770301 0 0 0 0.000978 -0.999999 0.000978
5.91738033 5.92001247 3.92137218 0 0 0 0.890801 -0.447479 -0.078967
9.05852032 8.58857250 0.32474971 0 0 0 0.000978 -0.999999 0.000978
13.08611202 8.45040894 0.31164598 0 0 0 0.000978 -0.999999 0.000978
9.83643913 8.30751514 0.67833412 0 0 0 0.000978 0.999999 0.000978
9.92934132 6.85525799 1.79687285 0 0 0 0.000978 0.999999 0.000978
10.13166332 4.28416824 4.35121918 0 0 0 0.000978 0.999999 0.000978
9.83006859 6.67971087 6.97081089 0 0 0 -0.999999 -0.000978 0.000978
5.97899866 7.63507032 4.60415792 0 0 0 -0.686955 -0.308726 -0.657861
