//X Y Z R G B Nx Ny Nz
699
-9.50507641 6.10574293 9.38172531 0 0 0 -0.014953 0.999864 0.006978
-7.08077812 9.63030148 10.02546883 0 0 0 0.000978 -0.999999 0.000978
-5.88228655 4.28417015 1.71175385 0 0 0 0.000978 0.999999 0.000978
-5.86056519 9.64203262 12.28057480 0 0 0 0.001093 0.991782 0.127937
-5.78222847 9.96042824 4.75122499 0 0 0 0.000978 0.000978 -0.999999
-5.85128307 6.93640232 8.26308250 0 0 0 -0.999999 0.000978 0.000978
-7.26659203 5.63899612 11.75704479 0 0 0 0.000978 0.999999 0.000978
-6.35346031 9.70823097 10.74787521 0 0 0 0.010858 0.000987 0.999941
-9.58803654 6.10574293 10.13480568 0 0 0 -0.015102 0.999772 0.015102
-11.63524628 4.28416777 18.89479637 0 0 0 0.000978 0.999999 0.000978
-6.57891273 4.46386957 13.70028496 0 0 0 0.000978 0.000978 -0.999999
-6.95122814 8.03372574 15.87038708 1 1 1 -0.964608 0.237620 -0.114314
-8.54684925 4.28416824 13.93142128 0 0 0 0.000978 0.999999 0.000978
-8.52426815 4.98214149 13.80988884 0 0 0 -0.469832 -0.001323 -0.882755
-8.85124874 9.89169979 8.48491096 0 0 0 0.000978 0.999999 0.000978
-7.86300707 9.79099560 5.35192299 0 0 0 0.001100 0.990809 -0.135260
-6.66301870 10.08173180 3.77329588 0 0 0 0.000978 -0.999999 0.000978
-9.62463379 10.21537304 9.13141441 0 0 0 -0.381263 0.924466 0.001275
-10.23462200 4.74480009 10.99767303 0 0 0 0.000978 0.999999 0.000978
-7.93743324 5.13163280 5.91059303 0 0 0 -0.101390 -0.103721 -0.989425
-6.48321915 4.28416824 17.24649620 0 0 0 0.000978 0.999999 0.000978
-6.97350693 5.32699585 13.22567081 0 0 0 0.000978 0.999999 0.000978
-10.05074692 6.01627970 5.72059011 0 0 0 0.000978 0.000978 -0.999999
-6.33828545 10.45641422 2.03536177 0 0 0 0.001219 0.956644 -0.291258
-5.83594704 7.21800470 6.37518692 0 0 0 -0.999999 0.000978 0.000978
-8.60257435 9.68323708 12.15849876 0 0 0 0.001100 0.990809 0.135260
-9.50213146 6.10574293 5.99280930 0 0 0 -0.009204 0.999162 -0.039885
-7.78906536 8.95043850 2.38589501 0 0 0 0.000978 0.000978 0.999999
-9.20700264 5.50974655 14.34797192 0 0 0 0.018902 0.999821 0.000995
-7.31583023 6.81208563 11.09746647 0 0 0 0.999999 0.000978 0.000978
-9.26306915 5.01825047 11.58313847 0 0 0 0.000978 0.000978 -0.999999
-5.73595190 6.74754620 13.30596161 0 0 0 0.999999 0.000978 0.000978
-6.60792065 9.49451160 12.60853195 0 0 0 0.001098 0.991141 0.132811
-9.99967003 4.28416777 17.57865524 0 0 0 0.000978 0.999999 0.000978
-9.01065922 9.79184246 6.32995176 0 0 0 0.001098 -0.991141 0.132811
-9.65919685 9.81173134 5.50441504 0 0 0 0.001100 0.990809 -0.135260
-10.32039833 4.28416872 12.70816994 0 0 0 0.000978 0.999999 0.000978
-12.24475098 4.28416777 18.83768463 0 0 0 0.000978 0.999999 0.000978
-5.73594809 6.71118116 6.74788618 0 0 0 0.999999 0.000978 0.000978
-8.62484455 4.97318316 12.13101196 0 0 0 0.466672 -0.001322 -0.884429
-8.89365864 9.78453255 5.40693760 0 0 0 0.001098 0.991141 -0.132811
-9.79925251 9.32389450 14.80121613 0 0 0 0.001100 0.990809 0.135260
-9.24087143 9.87270451 9.02117634 0 0 0 0.000978 -0.999999 0.000978
-5.82643032 9.48439598 10.52707958 0 0 0 0.001235 0.312519 -0.949911
-7.48138189 9.87270641 10.96837711 0 0 0 0.000978 -0.999999 0.000978
-7.86967611 4.28416967 1.32824516 0 0 0 0.000978 0.999999 0.000978
-9.58341217 9.38853359 14.24314499 0 0 0 0.001093 0.991782 0.127937
-11.76339054 4.28416777 19.12535667 0 0 0 0.000978 0.999999 0.000978
-8.40801907 9.73452568 10.79905796 0 0 0 0.959707 0.280680 -0.013482
-6.78401947 9.68040752 11.08838654 0 0 0 0.001093 -0.991782 -0.127937
-8.63016796 4.44226503 12.33691502 0 0 0 0.000978 0.000978 -0.999999
-7.77770329 6.50214767 14.76943493 1 1 1 -0.492556 0.300569 -0.816730
-8.64144325 4.28417063 -3.53198051 0 0 0 0.000978 0.999999 0.000978
-5.63897800 9.38951874 3.30902839 0 0 0 0.001098 -0.991141 0.132811
-9.92200947 4.74480009 10.66260529 0 0 0 0.000978 0.999999 0.000978
-8.42805099 4.28416872 10.66042137 0 0 0 0.000978 0.999999 0.000978
-9.94698429 9.69304562 11.88563347 0 0 0 0.001093 0.991782 0.127937
-8.74256706 9.51810741 12.22811890 0 0 0 -0.999999 0.000978 0.000978
-5.73595285 6.30810070 5.92294312 0 0 0 0.999999 0.000978 0.000978
-5.98963022 10.08173180 7.43004179 0 0 0 0.000978 -0.999999 0.000978
-5.81615686 9.75686264 12.09183788 0 0 0 -0.999999 0.000978 0.000978
-10.14453793 9.87270451 5.82024384 0 0 0 0.000978 -0.999999 0.000978
-9.22281170 9.35347939 14.51452923 0 0 0 0.001093 0.991782 0.127937
-9.60504818 9.26662636 15.18693924 0 0 0 0.001093 0.991782 0.127937
-9.95500469 4.28416920 9.73097610 0 0 0 0.000978 0.999999 0.000978
-9.07764816 9.47859573 3.97788334 0 0 0 0.001098 -0.991141 0.132811
-8.41212940 7.63522530 15.92013454 1 1 1 0.188542 0.116122 0.975176
-5.90904856 10.68598747 6.81446934 0 0 0 -0.406019 0.913864 0.001289
-5.73595190 8.79971504 4.92171478 0 0 0 0.999999 0.000978 0.000978
-7.00931358 9.63030148 7.39454174 0 0 0 0.000978 -0.999999 0.000978
-9.71814632 4.63419819 12.12239552 0 0 0 0.999445 0.033281 0.001009
-6.19522047 5.69640541 5.91054249 0 0 0 -0.101624 -0.103960 -0.989376
-8.34001255 9.63030052 8.50148582 0 0 0 0.000978 -0.999999 0.000978
-7.18737793 9.82428169 5.59671307 0 0 0 0.001100 0.990809 -0.135260
-8.64522743 9.31016636 14.84985733 0 0 0 0.001093 0.991782 0.127937
-10.14479923 4.56400776 10.75788116 0 0 0 -0.989940 -0.101204 0.098878
-7.23638248 10.84316158 7.52686214 0 0 0 0.003789 0.935854 -0.352366
-5.76035404 9.27008438 14.26507854 0 0 0 0.001093 -0.991782 -0.127937
-7.31583023 5.00768614 10.88565445 0 0 0 0.999999 0.000978 0.000978
-6.60495996 10.08173180 13.36973572 0 0 0 0.000978 -0.999999 0.000978
-7.20703220 9.21677876 2.27078772 0 0 0 0.001127 -0.167869 -0.985809
-7.75935888 9.89170074 6.24297905 0 0 0 0.000978 0.999999 0.000978
-5.83594990 7.45743704 7.70098877 0 0 0 -0.999999 0.000978 0.000978
-9.45010853 4.61725426 14.26129246 0 0 0 -0.018902 -0.999821 0.000995
-6.77090406 9.87270546 6.16824102 0 0 0 0.000978 -0.999999 0.000978
-5.77187157 9.59577370 12.63870907 0 0 0 0.001093 0.991782 0.127937
-5.83898973 7.19094658 4.78220034 0 0 0 0.999999 0.000978 0.000978
-8.75827217 9.62105179 12.44300461 0 0 0 0.001093 0.991782 0.127937
-9.10135174 9.84531212 10.70680046 0 0 0 0.001093 0.991782 0.127937
-10.04506874 7.06575823 7.63133907 0 0 0 0.999999 -0.000978 -0.000978
-7.07011986 10.08173180 12.78626537 0 0 0 0.000978 -0.999999 0.000978
-9.56541729 5.28683567 14.64483738 0 0 0 0.000978 0.000978 -0.999999
-6.78035164 9.11838627 1.27318001 0 0 0 0.001098 -0.991141 0.132811
-9.41538143 9.84881306 10.67969227 0 0 0 0.001093 0.991782 0.127937
-6.35783195 5.32699490 12.53459644 0 0 0 0.000978 0.999999 0.000978
-7.16871834 10.08173180 2.14322615 0 0 0 0.000978 -0.999999 0.000978
-9.94853973 6.10574293 7.54959202 0 0 0 -0.023202 0.999690 -0.009079
-6.85039425 9.87270546 8.10864353 0 0 0 0.000978 -0.999999 0.000978
-9.64194107 4.36418962 11.97378445 0 0 0 0.018902 0.999821 0.000995
-5.85554409 5.50159788 11.95185280 0 0 0 0.999999 0.000978 0.000978
-6.98453856 10.08173180 11.45247078 0 0 0 0.000978 -0.999999 0.000978
-5.65298033 6.10574293 3.71454000 0 0 0 0.015772 0.997816 -0.064138
-7.55094671 5.57542562 12.29645061 0 0 0 0.002944 -0.000981 -0.999995
-7.57232571 4.36006021 6.41731930 0 0 0 -0.071075 -0.996146 -0.051393
-7.88523960 7.68935585 14.32296181 0 0 0 -0.999999 0.000978 0.000978
-10.19401836 9.30664158 13.32710266 0 0 0 0.001273 -0.378186 0.925729
-8.18244839 4.65899611 13.17831802 0 0 0 0.000978 -0.999999 0.000978
-5.86786604 8.36044121 8.21577835 0 0 0 -0.999999 0.000978 0.000978
-10.88517570 4.28417063 0.49074364 0 0 0 0.000978 0.999999 0.000978
-7.74062061 5.41251278 12.29629421 0 0 0 0.002944 -0.000981 -0.999995
-8.40039063 8.45384121 15.56246948 1 1 1 0.870545 0.368719 -0.325880
-6.59048176 9.19790649 14.82387161 0 0 0 0.001093 -0.991782 -0.127937
-7.89827490 9.65654659 11.27312279 0 0 0 0.001093 -0.991782 -0.127937
-8.74573898 9.50885677 13.44094563 0 0 0 0.001100 0.990809 0.135260
-10.23446178 9.13368893 5.92732525 0 0 0 0.825615 0.268986 -0.495991
-6.79451561 8.41002560 16.20293427 1 1 1 0.270694 0.962603 -0.010925
-9.25276089 4.28416872 11.33754349 0 0 0 0.000978 0.999999 0.000978
-8.85413742 9.63030052 7.03385353 0 0 0 0.000978 -0.999999 0.000978
-5.80167007 10.08173180 15.73155594 0 0 0 0.000978 -0.999999 0.000978
-5.83594990 8.00583267 10.85403347 0 0 0 -0.999999 0.000978 0.000978
-7.95801735 4.28416872 8.12907791 0 0 0 0.000978 0.999999 0.000978
-11.12806034 4.28417110 -3.50422478 0 0 0 0.000978 0.999999 0.000978
-5.83595037 9.73050213 11.51573753 0 0 0 -0.999999 0.000978 0.000978
-6.50390339 10.16688061 11.14814281 0 0 0 0.003789 0.935854 0.352366
-6.93851757 9.28426838 1.65060687 0 0 0 0.001098 0.991141 -0.132811
-9.33529282 4.66015387 14.54049587 0 0 0 -0.018902 -0.999821 0.000995
-7.22389746 10.10108757 10.78766251 0 0 0 -0.406019 0.913864 0.001289
-11.33265018 4.28416872 12.85443115 0 0 0 0.000978 0.999999 0.000978
-5.80645037 9.10626793 12.25633621 0 0 0 0.001215 0.285453 -0.958392
-7.92024660 4.36006021 6.99790287 0 0 0 -0.076494 -0.996580 -0.031244
-10.19250393 9.79787827 10.78751659 0 0 0 0.001273 0.378186 -0.925729
-5.83595037 6.54170752 11.39739704 0 0 0 -0.999999 0.000978 0.000978
-9.10321617 7.10555363 5.98199034 0 0 0 0.000978 0.999999 -0.000978
-10.09641743 4.74480009 5.94080257 0 0 0 0.000978 0.999999 0.000978
-5.73595095 6.81260490 11.80154324 0 0 0 0.999999 0.000978 0.000978
-8.06552315 9.87270641 11.54630470 0 0 0 0.000978 -0.999999 0.000978
-8.90050793 8.58045292 15.98983574 1 1 1 -0.649982 0.026673 0.759482
-7.25824213 6.14408398 13.73653126 0 0 0 0.018902 0.999821 0.000995
-8.76427841 9.43571949 13.97882462 0 0 0 0.001100 0.990809 0.135260
-7.17708588 9.22244740 1.17062688 0 0 0 0.001100 0.990809 -0.135260
-9.15885639 9.12743378 15.36946678 0 0 0 0.001093 -0.991782 -0.127937
-5.75770807 10.08173180 8.34091568 0 0 0 0.000978 -0.999999 0.000978
-8.33070469 6.79183102 14.78008556 1 1 1 0.520006 -0.204667 -0.829280
-7.21560192 10.08173180 13.97157955 0 0 0 0.000978 -0.999999 0.000978
-6.74771452 9.39458656 2.43660045 0 0 0 0.001100 0.990809 -0.135260
-10.12826920 9.34338188 14.00125408 0 0 0 -0.999999 0.000978 -0.000978
-11.89645767 4.28416777 17.36411285 0 0 0 0.000978 0.999999 0.000978
-8.90502739 9.34389400 13.42682743 0 0 0 0.999999 0.000978 0.000978
-6.87599993 9.49740028 4.93312883 0 0 0 -0.999999 0.000978 0.000978
-6.34110737 10.49378109 5.59328222 0 0 0 -0.406019 0.913864 0.001289
-7.31365108 9.36864758 2.24583054 0 0 0 0.001100 0.990809 -0.135260
-10.06298733 4.81308460 5.97584581 0 0 0 0.000978 -0.999999 0.000978
-9.63084507 9.39113045 3.99059343 0 0 0 0.001166 -0.218041 -0.975939
-5.85858202 9.47870922 13.54500771 0 0 0 0.001093 0.991782 0.127937
-8.90502739 9.37004375 12.88001728 0 0 0 0.999999 0.000978 0.000978
-8.52725410 7.89925957 16.03851700 1 1 1 -0.961924 0.253680 0.101730
-10.25311852 5.83035231 10.79826641 0 0 0 0.000978 -0.999999 0.000978
-9.22506332 4.54623556 13.96528530 0 0 0 0.000978 0.000978 0.999999
-9.84684753 9.26654434 14.29248524 0 0 0 0.001093 -0.991782 -0.127937
-9.20430946 9.36522388 2.25847983 0 0 0 0.001098 0.991141 -0.132811
-7.95586157 5.82646132 10.82695007 0 0 0 -0.098878 -0.101204 0.989940
-5.73594999 6.75331068 10.80701542 0 0 0 0.999999 0.000978 0.000978
-5.86080265 9.63030243 9.78201866 0 0 0 0.000978 -0.999999 0.000978
-5.79487133 9.69977188 10.16895962 0 0 0 0.999999 0.000978 0.000978
-10.03608418 6.10574293 10.06770420 0 0 0 -0.023388 0.999577 0.017287
-5.85105896 9.17067909 6.79938555 0 0 0 0.999999 0.000978 -0.000978
-10.31416416 9.93039417 7.49614716 0 0 0 -0.381263 0.924466 0.001275
-10.56701756 4.28417015 2.19925880 0 0 0 0.000978 0.999999 0.000978
-5.99313545 9.81663609 5.64799023 0 0 0 0.001098 0.991141 -0.132811
-10.11497784 9.25515842 14.38484192 0 0 0 0.001098 0.991141 0.132811
-12.17394257 4.28417063 -1.78741074 0 0 0 0.000978 0.999999 0.000978
-7.02973747 4.28416824 16.91163635 0 0 0 0.000978 0.999999 0.000978
-10.58652401 4.28416920 10.62151718 0 0 0 0.000978 0.999999 0.000978
-9.83325291 7.08264685 5.91465950 0 0 0 -0.000978 -0.000978 -0.999999
-5.85913563 10.70820713 11.38452244 0 0 0 -0.406019 0.913864 0.001289
-5.78555584 9.18977547 7.52049446 0 0 0 -0.011204 -0.312471 -0.949861
-7.01318645 4.28416920 5.17228127 0 0 0 0.000978 0.999999 0.000978
-9.77193069 6.10574293 6.70248270 0 0 0 -0.019282 0.999628 -0.019282
-10.12845421 9.29366016 2.45261002 0 0 0 -0.999999 0.000978 0.000978
-8.50813389 4.36006021 6.37313366 0 0 0 -0.081311 -0.994665 -0.063489
-6.45909548 10.44132042 13.29182529 0 0 0 -0.420274 0.907321 -0.011783
-9.90550995 5.81445122 6.14789486 0 0 0 -0.999999 0.000978 0.000978
-7.55358315 9.87270641 10.42501163 0 0 0 0.000978 -0.999999 0.000978
-7.35947895 4.28416824 15.17455482 0 0 0 0.000978 0.999999 0.000978
-12.17689133 4.28416920 8.57325745 0 0 0 0.000978 0.999999 0.000978
-7.43427420 9.25436974 2.28687143 0 0 0 0.001098 0.991141 -0.132811
-5.80388784 6.10574293 6.94755411 0 0 0 0.079101 0.991632 -0.102029
-6.19200420 9.63030243 6.20836306 0 0 0 0.000978 -0.999999 0.000978
-7.17393017 10.13475227 4.55976439 0 0 0 -0.420274 0.907321 0.011783
-10.13167858 10.00581837 9.62904930 0 0 0 -0.381263 0.924466 0.001275
-8.41929245 9.29055595 15.04640293 0 0 0 0.001100 0.990809 0.135260
-6.46153545 8.59075260 15.95845318 1 1 1 0.606140 0.514965 0.606140
-6.02991819 9.22632217 1.21551108 0 0 0 0.001098 0.991141 -0.132811
-10.06897068 4.28416824 15.05158710 0 0 0 0.000978 0.999999 0.000978
-7.31714153 6.82466316 10.81025887 0 0 0 0.000978 0.000978 -0.999999
-7.42248678 9.76298904 5.24517584 0 0 0 0.001098 0.991141 -0.132811
-5.73595047 8.49578953 11.32044983 0 0 0 0.999999 0.000978 0.000978
-6.64377594 9.63030243 9.37349319 0 0 0 0.000978 -0.999999 0.000978
-7.72697926 9.21225357 1.10987973 0 0 0 0.001098 0.991141 -0.132811
-7.72974873 10.71535969 7.19470596 0 0 0 -0.003789 0.935854 -0.352366
-9.41745186 5.48975706 11.83386898 0 0 0 0.018902 0.999821 0.000995
-8.81388855 9.70637989 11.98829651 0 0 0 0.001100 0.990809 0.135260
-8.98791218 4.28416777 19.87164879 0 0 0 0.000978 0.999999 0.000978
-10.21901703 5.67347145 10.67595768 0 0 0 0.000978 0.999999 0.000978
-10.22249508 9.10227013 11.47892475 0 0 0 0.999999 0.000978 0.000978
-9.43199825 4.28416824 13.58838940 0 0 0 0.000978 0.999999 0.000978
-9.18855000 9.26295853 2.35061002 0 0 0 0.001098 0.991141 -0.132811
-5.73595285 7.66356754 14.21170235 0 0 0 0.999999 0.000978 0.000978
-9.33917809 9.42578030 13.95478058 0 0 0 0.001093 0.991782 0.127937
-5.81418324 9.26130676 4.66605568 0 0 0 -0.999999 0.000978 -0.000978
-6.69992542 9.47016048 13.61119461 0 0 0 0.001093 0.991782 0.127937
-12.18510246 4.28417063 -1.74374771 0 0 0 0.000978 0.999999 0.000978
-9.77502441 4.36006021 7.83431244 0 0 0 -0.098735 -0.994943 -0.018445
-8.21531868 4.28416824 16.53585815 0 0 0 0.000978 0.999999 0.000978
-6.83842850 9.45069122 12.86683464 0 0 0 0.001093 -0.991782 -0.127937
-9.77181625 9.62930489 5.10950851 0 0 0 0.001098 -0.991141 0.132811
-6.63993359 10.08173180 7.73564911 0 0 0 0.000978 -0.999999 0.000978
-9.90589046 9.28216457 2.50294375 0 0 0 0.001098 -0.991141 0.132811
-5.83595371 7.60537720 14.16538906 0 0 0 -0.999999 0.000978 0.000978
-7.36762667 4.36006021 9.15545368 0 0 0 -0.069903 -0.996922 0.035489
-6.15441656 9.15252018 15.17525387 0 0 0 0.001093 -0.991782 -0.127937
-9.77426720 9.89170074 7.48085833 0 0 0 0.000978 0.999999 0.000978
-5.83594894 8.73008823 7.23767281 0 0 0 -0.999999 0.000978 0.000978
-10.20117092 9.74999905 11.66373634 0 0 0 -0.005491 -0.991695 -0.128492
-6.78274632 9.50265408 4.12946224 0 0 0 0.001098 0.991141 -0.132811
-11.50656796 4.28416920 10.42632294 0 0 0 0.000978 0.999999 0.000978
-8.61757565 4.36006021 7.38016176 0 0 0 -0.082935 -0.996298 -0.022619
-6.69139004 10.56495380 6.79547405 0 0 0 0.003789 0.935854 -0.352366
-8.87244320 4.28416920 7.45011187 0 0 0 0.000978 0.999999 0.000978
-11.35056591 4.28416872 12.39020348 0 0 0 0.000978 0.999999 0.000978
-6.06184959 9.34924793 14.61476326 0 0 0 0.001100 0.990809 0.135260
-5.73595047 10.01337051 3.24153376 0 0 0 0.999999 0.000978 0.000978
-9.31286526 4.61473036 14.42344475 0 0 0 -0.018902 -0.999821 0.000995
-8.60309601 9.32478619 14.73667145 0 0 0 0.001093 0.991782 0.127937
-8.28470707 7.05562019 14.43706608 1 1 1 -0.531371 0.832034 -0.159262
-5.78032303 4.28416824 15.73727989 0 0 0 0.000978 0.999999 0.000978
-7.14003086 9.87270641 10.53765678 0 0 0 0.000978 -0.999999 0.000978
-7.66474009 9.89170170 8.22381687 0 0 0 0.000978 0.999999 0.000978
-10.80920696 4.28416777 18.89590454 0 0 0 0.000978 0.999999 0.000978
-10.25735092 4.28416872 13.22601223 0 0 0 0.000978 0.999999 0.000978
-6.10849953 4.28416920 4.28450871 0 0 0 0.000978 0.999999 0.000978
-6.85362768 9.66263485 12.12107372 0 0 0 0.001093 0.991782 0.127937
-6.20734501 9.89170265 8.68723583 0 0 0 0.000978 0.999999 0.000978
-10.37742710 4.80262995 6.18912601 0 0 0 0.000978 0.000978 -0.999999
-5.89852858 6.01518869 10.83691502 0 0 0 0.000978 0.000978 -0.999999
-6.61027718 9.63030148 8.97863960 0 0 0 0.000978 -0.999999 0.000978
-5.81945896 7.44223070 10.71572304 0 0 0 0.000978 0.000978 -0.999999
-9.04538631 5.32385206 14.27777004 0 0 0 0.466672 -0.001322 0.884429
-10.13688087 9.08264923 14.02785683 0 0 0 0.004907 0.999987 0.000981
-9.08493328 9.89170074 9.22300339 0 0 0 0.000978 0.999999 0.000978
-10.34399986 9.87270451 9.43759632 0 0 0 0.000978 -0.999999 0.000978
-7.59003448 9.82525635 10.86207104 0 0 0 0.001093 0.991782 0.127937
-8.40065861 6.10574293 9.84840488 0 0 0 0.004936 0.999976 0.004936
-8.67484379 9.41671181 13.12990189 0 0 0 0.001093 -0.991782 -0.127937
-7.79735756 4.28416824 17.28013611 0 0 0 0.000978 0.999999 0.000978
-9.73937035 9.70599651 11.78536892 0 0 0 0.001093 0.991782 0.127937
-6.07761574 10.64550686 2.94174504 0 0 0 -0.420274 0.907321 0.011783
-5.79200220 8.56549644 7.81389999 0 0 0 0.000978 0.000978 -0.999999
-5.73930788 8.93016243 9.00573063 0 0 0 -0.462431 0.001317 -0.886654
-7.75145864 5.97110176 12.50465298 0 0 0 0.002938 0.000979 0.999995
-7.31583023 6.42212009 11.33232307 0 0 0 0.999999 0.000978 0.000978
-10.17798615 9.43685532 2.99727249 0 0 0 -0.005502 -0.991376 0.130936
-9.45185852 4.28416824 15.86888885 0 0 0 0.000978 0.999999 0.000978
-7.05617666 9.45872784 2.96057367 0 0 0 0.001098 0.991141 -0.132811
-9.42416859 4.28416967 4.34989834 0 0 0 0.000978 0.999999 0.000978
-5.76485777 8.45528221 8.15662098 0 0 0 0.999999 0.000978 0.000978
-10.14408779 9.30418301 4.73242331 0 0 0 0.001273 0.378186 -0.925729
-6.11612988 6.10574293 8.01341152 0 0 0 0.067384 0.995297 -0.069593
-5.83595037 6.39056301 11.28558636 0 0 0 -0.999999 0.000978 0.000978
-7.14831591 9.33499813 2.03152299 0 0 0 0.001098 0.991141 -0.132811
-10.12839603 9.65379620 12.40598774 0 0 0 -0.005491 -0.991695 -0.128492
-8.40791321 7.82842970 16.17931366 1 1 1 0.117298 -0.110189 0.986965
-12.00178623 4.28416777 18.52589607 0 0 0 0.000978 0.999999 0.000978
-8.27141953 5.35418892 13.89313793 0 0 0 0.002944 -0.000981 0.999995
-8.13800430 4.28416824 14.01399994 0 0 0 0.000978 0.999999 0.000978
-10.05448627 6.29129791 8.97068405 0 0 0 -0.000978 0.000978 -0.999999
-8.47259903 9.10560513 15.53846169 0 0 0 0.001093 -0.991782 -0.127937
-9.67936039 4.48018360 12.14048386 0 0 0 0.000978 0.000978 -0.999999
-6.00025797 4.28416872 6.49955082 0 0 0 0.000978 0.999999 0.000978
-6.18072510 10.08173180 7.15782213 0 0 0 0.000978 -0.999999 0.000978
-8.78726864 9.18142605 0.86894280 0 0 0 0.001100 0.990809 -0.135260
-6.05938387 10.61910629 5.78759956 0 0 0 -0.406019 0.913864 0.001289
-9.38966274 5.22829819 14.21871758 0 0 0 0.018902 0.999821 0.000995
-7.39586020 9.73538399 5.03789663 0 0 0 0.001098 0.991141 -0.132811
-5.93801594 10.57197571 6.87572336 0 0 0 0.381263 0.924466 0.001275
-6.10454178 9.87270737 10.70654678 0 0 0 0.000978 -0.999999 0.000978
-7.92845249 6.56518841 14.76833057 1 1 1 0.822253 0.229001 -0.521016
-7.74053907 4.64365721 13.88979340 0 0 0 0.002944 -0.000981 0.999995
-5.77052402 9.33168697 10.36693001 0 0 0 0.011204 0.312471 0.949861
-5.73594713 7.98777103 9.51342869 0 0 0 0.999999 0.000978 0.000978
-9.65298367 9.90923500 10.79938602 0 0 0 0.000978 -0.999999 0.000978
-10.04489708 7.09317398 8.20323181 0 0 0 0.999999 -0.000978 -0.000978
-9.78413105 4.28416824 17.35609818 0 0 0 0.000978 0.999999 0.000978
-5.73594904 8.06005573 10.24431705 0 0 0 0.999999 0.000978 0.000978
-5.73595285 8.68507099 14.21562958 0 0 0 0.999999 0.000978 0.000978
-6.74127102 4.36006021 9.41936111 0 0 0 -0.060816 -0.997601 0.033076
-8.44551754 4.47831202 13.76908588 0 0 0 -0.469832 -0.001323 -0.882755
-9.67869759 4.28417015 1.06085110 0 0 0 0.000978 0.999999 0.000978
-6.49652672 9.89170265 10.48728657 0 0 0 0.000978 0.999999 0.000978
-7.93727636 9.42570114 5.93571520 0 0 0 -0.959249 -0.282560 -0.001213
-5.80371857 9.69649601 6.42801666 0 0 0 0.011204 0.312471 0.949861
-10.14488411 5.87939215 7.74274015 0 0 0 -0.994734 -0.099364 -0.025114
-7.45368910 9.89170170 8.26657772 0 0 0 0.000978 0.999999 0.000978
-6.29688740 4.28416824 10.36062050 0 0 0 0.000978 0.999999 0.000978
-6.73655081 10.71543121 7.19106674 0 0 0 0.003789 0.935854 -0.352366
-6.89088583 9.72546291 10.89456749 0 0 0 0.001098 0.991141 0.132811
-8.57502842 8.05399990 15.56232929 1 1 1 0.609174 0.737085 0.292596
-7.96731806 9.87270546 10.85337257 0 0 0 0.000978 -0.999999 0.000978
-10.17970181 6.10553646 10.94192219 0 0 0 0.000978 0.999999 0.000978
-9.36251450 4.28416967 5.43654251 0 0 0 0.000978 0.999999 0.000978
-7.24164057 4.28417015 -0.91338253 0 0 0 0.000978 0.999999 0.000978
-7.18163204 9.59077263 3.87941027 0 0 0 0.001100 0.990809 -0.135260
-5.92544317 4.28416920 5.92799664 0 0 0 0.000978 0.999999 0.000978
-8.43126774 6.10574293 7.02540636 0 0 0 0.011273 0.999217 -0.037919
-6.87600040 9.44206238 4.16956234 0 0 0 -0.999999 0.000978 0.000978
-5.85246468 9.76410580 11.56376362 0 0 0 0.001100 0.990809 0.135260
-8.34824467 7.01615429 10.75626564 0 0 0 0.999999 0.000978 -0.000978
-8.31850529 9.87270546 9.30127144 0 0 0 0.000978 -0.999999 0.000978
-5.75219297 10.07879925 11.99050140 0 0 0 0.000978 -0.999999 0.000978
-5.73595238 9.57067013 13.88326168 0 0 0 0.999999 0.000978 0.000978
-5.73671484 9.09332085 10.45296955 0 0 0 0.000978 0.999999 0.000978
-9.57057285 4.99386454 14.30006695 0 0 0 -0.999445 -0.033281 0.001009
-8.11868572 6.10574293 6.04417753 0 0 0 0.026774 0.997063 -0.071754
-7.56117344 9.63030148 10.39417553 0 0 0 0.000978 -0.999999 0.000978
-8.61709690 4.28416872 10.89599609 0 0 0 0.000978 0.999999 0.000978
-9.35876751 9.59646034 12.63338852 0 0 0 0.001093 0.991782 0.127937
-5.73594904 6.39360332 7.26559448 0 0 0 0.999999 0.000978 0.000978
-6.56894636 8.05336285 15.44025517 1 1 1 0.894928 0.351738 0.274563
-8.19440365 9.14217186 14.32725334 0 0 0 0.001098 -0.991141 -0.132811
-8.39131165 6.60326290 10.77770805 0 0 0 -0.999999 0.000978 0.000978
-8.78784657 6.10574293 9.28565311 0 0 0 -0.000979 0.999999 0.000979
-9.72609043 5.51929235 11.98728752 0 0 0 0.018902 0.999821 0.000995
-6.80072212 9.17831993 10.78558636 0 0 0 -0.959707 -0.280680 0.013482
-7.98827505 9.12671375 10.82578373 0 0 0 -0.000978 0.000978 -0.999999
-9.43497658 9.66922379 11.17496872 0 0 0 0.001093 -0.991782 -0.127937
-7.31582928 4.95549631 12.47980690 0 0 0 0.999999 0.000978 0.000978
-11.60644817 4.28417015 -0.38790131 0 0 0 0.000978 0.999999 0.000978
-5.78657961 8.45797539 4.58228016 0 0 0 -0.951115 0.308835 0.001230
-6.92689800 4.36006021 6.31611156 0 0 0 -0.063854 -0.996770 -0.048702
-10.19651127 9.75406170 8.81842709 0 0 0 0.001273 0.378186 -0.925729
-7.86097479 10.94426918 8.42121410 0 0 0 -0.381263 0.924466 0.001275
-8.26282215 4.28416824 13.13209915 0 0 0 0.000978 0.999999 0.000978
-6.01216888 5.63707113 11.43691540 0 0 0 0.000978 0.000978 -0.999999
-7.15363693 4.28416824 12.73839855 0 0 0 0.000978 0.999999 0.000978
-10.13683319 9.56204987 7.34011221 0 0 0 -0.999999 0.000978 0.000978
-5.83595037 7.25650358 3.13576865 0 0 0 -0.999999 0.000978 0.000978
-10.84433270 4.28416967 5.88746166 0 0 0 0.000978 0.999999 0.000978
-10.36192513 5.83287144 11.12359333 0 0 0 0.000978 0.000978 0.999999
-8.80171204 8.52855682 15.81198215 1 1 1 -0.768706 0.532430 -0.354414
-9.59660053 4.66373539 11.58313847 0 0 0 0.000978 0.000978 0.999999
-9.05594826 9.89170074 7.40107441 0 0 0 0.000978 0.999999 0.000978
-6.95614815 10.08173180 4.04631138 0 0 0 0.000978 -0.999999 0.000978
-7.69538546 9.64506817 11.32849789 0 0 0 0.999999 0.000978 0.000978
-10.12630939 9.82473564 6.03251934 0 0 0 -0.999999 0.000978 0.000978
-6.26877022 9.73926449 5.88542080 0 0 0 0.001098 0.991141 -0.132811
-5.80010939 8.32751179 4.78825235 0 0 0 0.000978 0.000978 -0.999999
-5.91821623 10.51902771 10.21741867 0 0 0 0.003789 0.935854 0.352366
-7.03839588 10.08173180 12.75149536 0 0 0 0.000978 -0.999999 0.000978
-11.48037338 4.28416824 17.41729164 0 0 0 0.000978 0.999999 0.000978
-8.74288654 6.26706219 5.96172142 0 0 0 -0.999999 0.000978 0.000978
-7.65252495 7.40215492 15.13225174 1 1 1 0.924506 -0.116419 0.362954
-7.96985626 9.63030052 6.85478735 0 0 0 0.000978 -0.999999 0.000978
-8.08096695 4.67083120 5.91059732 0 0 0 -0.094198 -0.108153 -0.989661
-8.55986595 7.62695980 15.22892189 1 1 1 -0.444101 0.567185 -0.693596
-5.76901531 6.10535908 13.13241577 0 0 0 0.000978 -0.999999 0.000978
-5.73594999 7.45572186 10.92522430 0 0 0 0.999999 0.000978 0.000978
-9.98295689 4.28416920 9.49459648 0 0 0 0.000978 0.999999 0.000978
-10.87182140 4.28416777 20.89174080 0 0 0 0.000978 0.999999 0.000978
-9.24474239 5.08467817 12.14048386 0 0 0 0.000978 0.000978 0.999999
-6.00899458 4.28416967 0.71540070 0 0 0 0.000978 0.999999 0.000978
-9.81311798 9.87270546 11.70984459 0 0 0 0.000978 -0.999999 0.000978
-9.51760101 4.36190271 14.50664330 0 0 0 0.018902 0.999821 0.000995
-6.87305450 9.42283535 13.97758293 0 0 0 0.001093 0.991782 0.127937
-8.80622292 8.05614185 15.97217178 1 1 1 -0.265455 0.894243 -0.360366
-7.25188684 5.96889114 13.88979435 0 0 0 0.000978 0.000978 0.999999
-9.10503197 6.36899948 5.93876791 0 0 0 0.999999 0.000978 -0.000978
-7.01925802 6.10574293 8.02882290 0 0 0 0.041363 0.998004 -0.047726
-8.84132099 9.40655708 13.26126862 0 0 0 0.001098 -0.991141 -0.132811
-7.48629141 11.09912395 8.55392742 0 0 0 -0.381263 0.924466 0.001275
-7.31613445 4.28417015 -0.62637901 0 0 0 0.000978 0.999999 0.000978
-7.52895737 9.40746498 10.76186466 0 0 0 -0.014865 0.000991 -0.999889
-5.73595190 9.73480415 4.87588739 0 0 0 0.999999 0.000978 0.000978
-9.19191074 4.28417063 -2.64304924 0 0 0 0.000978 0.999999 0.000978
-7.27571964 6.56565189 16.59018707 1 1 1 -0.417749 -0.345778 0.840192
-8.92445374 4.28416920 8.47046852 0 0 0 0.000978 0.999999 0.000978
-10.02205658 9.55343246 4.53980303 0 0 0 0.001098 -0.991141 0.132811
-6.52326918 10.45066643 2.01639318 0 0 0 0.001219 0.956644 -0.291258
-5.90794563 8.00059700 3.76355815 0 0 0 0.686955 -0.308726 0.657861
-7.04878092 4.28417063 -5.29872608 0 0 0 0.000978 0.999999 0.000978
-9.18474293 9.48507690 12.60062408 0 0 0 0.001093 -0.991782 -0.127937
-8.88737297 4.28416872 9.91615868 0 0 0 0.000978 0.999999 0.000978
-8.78635406 9.87270451 7.62641621 0 0 0 0.000978 -0.999999 0.000978
-8.75242233 4.64632177 12.06412411 0 0 0 0.466672 -0.001322 -0.884429
-10.20520210 4.28416777 18.94747162 0 0 0 0.000978 0.999999 0.000978
-9.58272839 4.61969328 14.14729691 0 0 0 -0.018902 -0.999821 0.000995
-5.74734688 8.39341354 2.45160842 0 0 0 -0.999999 0.000978 -0.000978
-5.73595238 10.02874660 13.71386051 0 0 0 0.999999 0.000978 0.000978
-6.74921036 4.28416967 2.39597225 0 0 0 0.000978 0.999999 0.000978
-5.79531527 7.15624809 8.95227528 0 0 0 0.888291 0.001316 -0.459279
-8.10027313 9.72104263 10.77378845 0 0 0 0.001093 -0.991782 -0.127937
-9.19570255 4.65758657 14.49602127 0 0 0 -0.018902 -0.999821 0.000995
-6.02446604 9.89030457 5.77802944 0 0 0 0.000978 0.000978 -0.999999
-6.82608795 9.36972427 3.16040349 0 0 0 0.001098 -0.991141 0.132811
-7.34242773 9.84536362 5.77802896 0 0 0 0.000978 0.000978 -0.999999
-6.81935263 4.28416729 20.90203285 0 0 0 0.000978 0.999999 0.000978
-10.14222145 9.63029957 10.11546612 0 0 0 0.000978 -0.999999 0.000978
-5.72621822 4.28416967 2.61501980 0 0 0 0.000978 0.999999 0.000978
-6.55161762 4.28416872 9.14051342 0 0 0 0.000978 0.999999 0.000978
-10.18049622 9.45188427 9.36217880 0 0 0 0.001273 -0.378186 -0.925729
-8.16082954 9.65083408 12.21242714 0 0 0 0.001093 0.991782 0.127937
-11.83803749 4.28416824 15.03930473 0 0 0 0.000978 0.999999 0.000978
-8.20214272 4.28417015 0.43002033 0 0 0 0.000978 0.999999 0.000978
-5.73594666 8.78362942 6.22331476 0 0 0 0.999999 0.000978 0.000978
-6.64849949 9.65995312 12.14183426 0 0 0 0.001093 0.991782 0.127937
-6.68072510 9.50922966 4.20790291 0 0 0 0.001098 -0.991141 0.132811
-5.87278414 10.08173180 13.81179237 0 0 0 0.000978 -0.999999 0.000978
-5.77041149 7.51951742 7.75310278 0 0 0 0.000978 0.000978 0.999999
-6.60431051 10.33323097 15.26690865 0 0 0 0.001217 0.957524 0.288352
-8.87368011 4.28416967 3.13664627 0 0 0 0.000978 0.999999 0.000978
-7.08850288 10.08173180 10.97205544 0 0 0 0.000978 -0.999999 0.000978
-10.13684750 9.40869808 7.95456982 0 0 0 -0.999999 0.000978 0.000978
-8.49587440 9.26771450 5.97189474 0 0 0 0.959269 -0.282282 -0.010998
-8.26785564 8.49466324 15.58797741 1 1 1 0.276423 0.653509 0.704639
-9.85389328 4.28417110 -3.10493374 0 0 0 0.000978 0.999999 0.000978
-9.07400703 4.57926655 14.49110317 0 0 0 -0.999445 -0.033281 0.001009
-9.89364719 10.10419655 10.34109879 0 0 0 -0.381263 0.924466 0.001275
-5.71363497 9.33788204 14.63529396 0 0 0 0.001093 0.991782 0.127937
-12.12289619 4.28416967 4.39179707 0 0 0 0.000978 0.999999 0.000978
-9.43891525 5.22920418 11.70108986 0 0 0 0.018902 0.999821 0.000995
-8.40507889 9.40409660 2.50653791 0 0 0 0.001100 0.990809 -0.135260
-7.48506212 5.26892853 10.90135288 0 0 0 -0.999999 0.000978 0.000978
-7.86138964 10.16093636 5.73848581 0 0 0 -0.003789 0.935854 -0.352366
-9.46299076 4.28417063 -0.77396393 0 0 0 0.000978 0.999999 0.000978
-9.54103661 9.85154152 5.77802992 0 0 0 0.000978 0.000978 -0.999999
-7.46684599 9.87270546 8.73119354 0 0 0 0.000978 -0.999999 0.000978
-5.83589506 4.92192936 4.22195005 0 0 0 -0.989826 -0.112559 -0.087030
-7.42313814 4.28417063 -2.98068523 0 0 0 0.000978 0.999999 0.000978
-7.06180096 10.17319393 9.86186695 0 0 0 -0.406019 0.913864 0.001289
-7.05663586 9.43139172 2.75531077 0 0 0 0.001098 0.991141 -0.132811
-5.74734545 8.81394005 14.36351871 0 0 0 -0.999999 0.000978 -0.000978
-5.94814539 9.63030243 7.28784370 0 0 0 0.000978 -0.999999 0.000978
-8.95622063 4.28416824 15.76232147 0 0 0 0.000978 0.999999 0.000978
-6.17518091 9.74230576 4.99383831 0 0 0 0.001100 0.990809 -0.135260
-6.26543140 9.32697868 14.77853775 0 0 0 0.001100 0.990809 0.135260
-7.73354721 6.14011717 14.29167175 0 0 0 0.000978 0.000978 -0.999999
-6.07692623 5.92827463 11.13691521 0 0 0 0.000978 0.000978 -0.999999
-7.97378063 6.10574293 10.07047749 0 0 0 0.012908 0.999904 0.004965
-8.76096439 9.24515152 14.45810509 0 0 0 0.001093 -0.991782 -0.127937
-6.99676514 4.28416824 15.80622959 0 0 0 0.000978 0.999999 0.000978
-5.80843735 6.10537958 2.80886841 0 0 0 0.000978 -0.999999 0.000978
-9.67376900 4.36006021 9.84409809 0 0 0 -0.096038 -0.993143 0.066661
-10.13684082 9.49858189 12.92370796 0 0 0 -0.999999 0.000978 0.000978
-10.37404346 4.74847889 5.76906443 0 0 0 0.999999 0.000978 0.000978
-6.78591061 10.08173180 12.26992702 0 0 0 0.000978 -0.999999 0.000978
-9.83530426 9.87270451 9.05751705 0 0 0 0.000978 -0.999999 0.000978
-8.28065681 9.87270546 10.56658363 0 0 0 0.000978 -0.999999 0.000978
-7.96092272 9.82199287 5.57988071 0 0 0 0.001100 0.990809 -0.135260
-10.16581154 9.40589523 3.38020706 0 0 0 0.001273 0.378186 -0.925729
-8.38963127 4.28416824 14.71033669 0 0 0 0.000978 0.999999 0.000978
-6.90924692 9.61378384 5.93079758 0 0 0 0.959249 0.282560 0.001213
-5.86792660 4.28416824 14.87462711 0 0 0 0.000978 0.999999 0.000978
-7.58316803 9.89170170 9.00779343 0 0 0 0.000978 0.999999 0.000978
-6.89376068 6.10574293 9.13157082 0 0 0 0.038226 0.999034 -0.021696
-8.39980602 9.54590416 3.61514902 0 0 0 0.001098 0.991141 -0.132811
-6.14224005 4.28416824 14.45464802 0 0 0 0.000978 0.999999 0.000978
-9.52544403 6.10574293 9.05049324 0 0 0 -0.014924 0.999884 0.002985
-10.47595978 9.86352444 7.22357273 0 0 0 -0.381263 0.924466 0.001275
-7.89566088 4.28416920 6.65322447 0 0 0 0.000978 0.999999 0.000978
-6.22624874 9.60752869 5.80386972 0 0 0 0.001098 -0.991141 0.132811
-9.52596951 9.78610611 5.41875744 0 0 0 0.001098 0.991141 -0.132811
-10.03837490 9.89169979 9.34863758 0 0 0 0.000978 0.999999 0.000978
-5.97185564 10.68284130 3.62333918 0 0 0 -0.420274 0.907321 0.011783
-12.41438293 4.28416872 10.31177998 0 0 0 0.000978 0.999999 0.000978
-10.22667789 5.13880682 6.39207220 0 0 0 0.992402 0.076164 0.096626
-6.61069775 10.08173180 10.45880508 0 0 0 0.000978 -0.999999 0.000978
-6.81214428 9.23923397 2.18058681 0 0 0 0.001098 -0.991141 0.132811
-6.25953579 8.45283604 9.16419125 0 0 0 0.462431 0.001317 0.886654
-11.32100010 4.28416777 18.71407318 0 0 0 0.000978 0.999999 0.000978
-5.72286224 4.28416967 4.84939146 0 0 0 0.000978 0.999999 0.000978
-8.00391293 9.89170170 10.33567810 0 0 0 0.000978 0.999999 0.000978
-7.20194054 9.87270641 10.22883987 0 0 0 0.000978 -0.999999 0.000978
-7.68963385 9.15206718 2.61524272 0 0 0 0.999999 0.000978 0.000978
-8.57032204 4.28416967 5.19660568 0 0 0 0.000978 0.999999 0.000978
-5.80574226 9.60675716 12.03518009 0 0 0 -0.001215 -0.285453 0.958392
-7.89155579 7.21610403 15.14120483 1 1 1 0.934947 -0.347795 -0.070088
-9.40041065 4.28417015 -0.20950222 0 0 0 0.000978 0.999999 0.000978
-5.83595276 7.04499245 13.55789280 0 0 0 -0.999999 0.000978 0.000978
-7.51860714 4.28417015 -0.97972679 0 0 0 0.000978 0.999999 0.000978
-5.98397255 10.08173180 12.63060570 0 0 0 0.000978 -0.999999 0.000978
-7.39957666 4.28416967 1.03012180 0 0 0 0.000978 0.999999 0.000978
-9.78704262 4.28416777 18.29376030 0 0 0 0.000978 0.999999 0.000978
-8.43967152 6.10574293 9.92577839 0 0 0 0.004936 0.999976 0.004936
-7.86887741 4.28416967 1.36699677 0 0 0 0.000978 0.999999 0.000978
-7.58486462 9.84052563 5.97413349 0 0 0 -0.010858 0.000987 -0.999941
-5.83595276 9.41969299 13.43964577 0 0 0 -0.999999 0.000978 0.000978
-6.69181633 9.87270641 9.92168236 0 0 0 0.000978 -0.999999 0.000978
-9.80898285 9.73329735 4.92758274 0 0 0 0.001100 0.990809 -0.135260
-5.75497580 10.08173180 6.78567839 0 0 0 0.000978 -0.999999 0.000978
-9.70402241 9.63030052 9.42394638 0 0 0 0.000978 -0.999999 0.000978
-5.83594894 7.10325289 10.36070633 0 0 0 -0.999999 0.000978 0.000978
-7.32997751 9.69884872 5.63169098 0 0 0 0.001098 -0.991141 0.132811
-6.77776432 4.28417015 -1.40538597 0 0 0 0.000978 0.999999 0.000978
-5.81345177 6.10574293 6.30213356 0 0 0 0.085048 0.989124 -0.120000
-5.83559608 10.08259010 2.52048612 0 0 0 -0.999999 0.000978 0.000978
-6.61795616 4.28416920 4.77587843 0 0 0 0.000978 0.999999 0.000978
-10.19670963 9.68531132 11.03136063 0 0 0 0.001273 0.378186 0.925729
-9.26151085 5.43838406 12.14048386 0 0 0 0.000978 0.000978 0.999999
-7.02979803 10.08173180 7.46281147 0 0 0 0.000978 -0.999999 0.000978
-9.58157825 9.63029957 6.94327879 0 0 0 0.000978 -0.999999 0.000978
-7.72597361 9.16334915 5.97564793 0 0 0 -0.010858 0.000987 -0.999941
-10.37404537 5.78868818 6.15381670 0 0 0 0.999999 0.000978 0.000978
-8.78174973 9.17446327 10.76653004 0 0 0 0.000978 -0.999999 0.000978
-10.32515812 5.67347097 6.08063269 0 0 0 0.000978 0.999999 0.000978
-7.47697115 4.28416967 2.60376835 0 0 0 0.000978 0.999999 0.000978
-6.23071337 4.28416824 12.71684742 0 0 0 0.000978 0.999999 0.000978
-5.83594608 9.02229881 9.09570789 0 0 0 -0.999999 0.000978 0.000978
-5.63926506 10.08173180 6.86788034 0 0 0 0.000978 -0.999999 0.000978
-6.73470926 9.42034245 12.03088093 0 0 0 0.001098 -0.991141 -0.132811
-6.93941689 9.60964775 4.96191263 0 0 0 0.001098 -0.991141 0.132811
-9.27906036 6.10574293 9.21413612 0 0 0 -0.010901 0.999936 0.002973
-7.21271515 9.82306385 5.58775711 0 0 0 0.001100 0.990809 -0.135260
-10.14484406 5.63652277 9.17026711 0 0 0 -0.994381 -0.100209 0.034137
-5.83560181 8.29285526 2.51874828 0 0 0 -0.999999 0.000978 0.000978
-9.07077980 4.48192978 14.12025261 0 0 0 -0.999445 -0.033281 0.001009
-9.83901405 9.17146301 5.95518446 0 0 0 0.959249 0.282560 0.001213
-7.03432369 9.56120205 12.01126385 0 0 0 0.001093 -0.991782 -0.127937
-6.00195885 9.88323879 6.14809322 0 0 0 0.001098 0.991141 -0.132811
-8.89938068 4.28416824 15.57336617 0 0 0 0.000978 0.999999 0.000978
-8.48252201 4.28416777 20.05682564 0 0 0 0.000978 0.999999 0.000978
-7.44036961 9.43150902 13.91043282 0 0 0 0.001093 0.991782 0.127937
-6.48804951 9.63030243 7.51306057 0 0 0 0.000978 -0.999999 0.000978
-8.90200901 9.28049183 1.59750319 0 0 0 0.001100 0.990809 -0.135260
-6.89539337 4.36006021 10.73599434 0 0 0 -0.062461 -0.996091 0.062461
-11.18650723 4.28417110 -3.12677956 0 0 0 0.000978 0.999999 0.000978
-9.57382107 10.23637676 10.65118504 0 0 0 -0.381263 0.924466 0.001275
-9.55149460 6.10574293 9.41177940 0 0 0 -0.014983 0.999863 0.006992
-7.20675516 10.08207893 11.37791920 0 0 0 0.003789 0.935854 0.352366
-7.01607180 9.65125751 5.27434635 0 0 0 0.001098 -0.991141 0.132811
-6.28552532 10.08173180 1.19333863 0 0 0 0.000978 -0.999999 0.000978
-7.43201685 4.28416920 6.47155285 0 0 0 0.000978 0.999999 0.000978
-10.20816994 9.91412926 8.22593784 0 0 0 -0.004926 -0.999984 0.002956
-10.19830799 9.16203499 5.29185915 0 0 0 0.999999 0.000978 0.000978
-7.87490177 9.11196232 5.90348721 0 0 0 0.000978 0.000978 0.999999
-6.54625940 5.90699577 10.91645527 0 0 0 0.000978 -0.999999 0.000978
-6.29496861 5.79499483 11.69408989 0 0 0 0.000978 0.999999 0.000978
-7.60517931 6.10574293 6.99602509 0 0 0 0.033009 0.997738 -0.058565
-8.59288216 4.55851460 5.91061211 0 0 0 -0.094198 -0.108153 -0.989661
-10.15916443 9.74008656 9.88029671 0 0 0 0.001273 -0.378186 0.925729
-8.25554371 4.67119122 12.50433922 0 0 0 0.999999 0.000978 0.000978
-5.76141214 10.75166893 8.50046539 0 0 0 -0.406019 0.913864 0.001289
-8.09344864 9.63030148 10.76077461 0 0 0 0.000978 -0.999999 0.000978
-5.83568335 5.10541201 11.57610130 0 0 0 -0.989361 -0.110706 0.094391
-9.98019505 5.08047152 5.91065216 0 0 0 -0.101181 -0.101181 -0.989709
-6.60183382 10.37779999 6.74839401 0 0 0 -0.406019 0.913864 0.001289
-8.40588951 4.28417015 1.60085106 0 0 0 0.000978 0.999999 0.000978
-8.47784042 7.17512226 15.94405270 1 1 1 0.213569 0.059799 0.975096
-8.90502834 9.32317638 13.77134991 0 0 0 0.999999 0.000978 0.000978
-5.83595037 8.33107567 2.73657966 0 0 0 -0.999999 0.000978 0.000978
-7.90949917 7.81307983 15.37607193 1 1 1 0.214739 0.022542 0.976411
-10.15161705 9.33631516 7.90369272 0 0 0 0.001273 -0.378186 0.925729
-6.61492157 9.11635399 1.25792527 0 0 0 0.001098 -0.991141 0.132811
-9.56624222 5.51635265 12.03472900 0 0 0 0.018902 0.999821 0.000995
-6.84437561 5.16069937 13.83691597 0 0 0 0.000978 0.000978 0.999999
-5.82965183 6.37979221 4.47767258 0 0 0 -0.999999 0.000978 0.000978
-8.87972546 9.54990673 12.99380970 0 0 0 0.001093 0.991782 0.127937
-7.05098629 8.55813026 15.76709843 1 1 1 -0.040286 0.840450 -0.540389
-9.83801174 4.28417063 -2.57040691 0 0 0 0.000978 0.999999 0.000978
-6.41417503 6.51799154 15.58782578 1 1 1 0.479266 0.630614 0.610434
-6.99540138 9.65128326 4.40640879 0 0 0 0.001098 0.991141 -0.132811
-5.69757748 4.28417063 -4.61958885 0 0 0 0.000978 0.999999 0.000978
-9.23706913 9.16992092 5.98302460 0 0 0 -0.959269 0.282282 0.010998
-10.03977966 6.54260874 10.87935638 0 0 0 0.999999 0.000978 0.000978
-9.78520775 9.44981003 12.87365437 0 0 0 0.001093 -0.991782 -0.127937
-10.79505062 4.28417063 -0.89170647 0 0 0 0.000978 0.999999 0.000978
-5.67340279 10.05601025 5.45749331 0 0 0 0.003789 0.935854 -0.352366
-5.76432037 6.68987322 8.90585899 0 0 0 0.462431 0.001317 0.886654
-6.31549644 9.67489719 4.49808884 0 0 0 0.001100 0.990809 -0.135260
-9.71941471 9.20549393 15.67197323 0 0 0 0.001100 0.990809 0.135260
-9.04372215 9.37564468 5.98127890 0 0 0 -0.959269 0.282282 0.010998
-10.14480209 4.42599010 10.62509060 0 0 0 -0.990473 -0.100785 0.093834
-6.94643784 5.43899584 11.74032688 0 0 0 0.000978 -0.999999 0.000978
-10.04157066 10.04305744 8.91493225 0 0 0 -0.381263 0.924466 0.001275
-8.50277424 4.28416920 7.01497316 0 0 0 0.000978 0.999999 0.000978
-7.25655603 10.11264229 3.53192997 0 0 0 -0.420274 0.907321 0.011783
-8.14231682 8.53937721 2.26644230 0 0 0 0.691755 0.722131 0.001381
-5.83594656 8.86678505 6.24464369 0 0 0 -0.999999 0.000978 0.000978
-7.03095818 10.77574348 9.55439091 0 0 0 0.003789 0.935854 0.352366
-11.09945869 4.28416872 13.97247505 0 0 0 0.000978 0.999999 0.000978
-6.22618294 4.28417015 -3.99664402 0 0 0 0.000978 0.999999 0.000978
-9.71585560 4.56509829 14.35862637 0 0 0 0.999445 0.033281 0.001009
-5.73594761 8.42151642 6.71872997 0 0 0 0.999999 0.000978 0.000978
-5.91520214 9.16425610 1.61760426 0 0 0 0.001098 -0.991141 0.132811
-10.25509834 5.11696672 6.42247534 0 0 0 0.277351 0.321375 0.905425
-10.09170914 9.24167919 2.26654387 0 0 0 0.001127 -0.167869 -0.985809
-7.05485296 4.28416967 1.81231117 0 0 0 0.000978 0.999999 0.000978
-9.15099716 4.65676451 11.78134251 0 0 0 -0.018902 -0.999821 0.000995
-6.29174089 6.10699606 10.96499252 0 0 0 0.000978 0.999999 0.000978
-5.73594904 7.49285603 10.29796696 0 0 0 0.999999 0.000978 0.000978
-7.45351601 9.58627224 4.78639460 0 0 0 0.001098 -0.991141 0.132811
-5.68013620 10.78781986 7.09475183 0 0 0 -0.406019 0.913864 0.001289
-5.73198700 9.89170265 8.51950455 0 0 0 0.000978 0.999999 0.000978
-10.13683319 9.80735779 7.51088190 0 0 0 -0.999999 0.000978 0.000978
-9.66804028 5.42138624 12.04247093 0 0 0 -0.018902 -0.999821 0.000995
-6.53602695 4.36006021 9.02410126 0 0 0 -0.060067 -0.997949 0.022130
-9.04799747 4.36006021 6.90214968 0 0 0 -0.089625 -0.994730 -0.049792
-10.00320244 9.49359798 3.16475987 0 0 0 0.001100 0.990809 -0.135260
-6.71624470 4.28417063 -5.46527004 0 0 0 0.000978 0.999999 0.000978
-6.87600040 9.48807144 4.39663935 0 0 0 -0.999999 0.000978 0.000978
-9.87220287 4.28416920 8.73670292 0 0 0 0.000978 0.999999 0.000978
-9.67490673 5.27396154 14.05113792 0 0 0 0.000978 0.000978 0.999999
-6.73579741 9.17958164 14.40300369 0 0 0 0.001098 -0.132811 0.991141
-11.22690964 4.28416967 5.37948513 0 0 0 0.000978 0.999999 0.000978
-9.14811039 6.49467611 5.94958401 0 0 0 -0.999999 0.000978 0.000978
-7.17778587 9.55451870 12.95809937 0 0 0 0.001093 0.991782 0.127937
-7.91505909 9.37436295 3.19522953 0 0 0 0.001098 -0.991141 0.132811
-5.80766487 7.13780785 3.71006513 0 0 0 0.000978 0.000978 0.999999
-11.58564186 4.28416920 12.22043896 0 0 0 0.000978 0.999999 0.000978
-5.83594608 7.93332529 6.12084103 0 0 0 -0.999999 0.000978 0.000978
-6.87155056 9.58594418 4.78392601 0 0 0 0.001098 -0.991141 0.132811
-5.73595047 9.86580944 3.33986330 0 0 0 0.999999 0.000978 0.000978
-9.68490219 5.39724350 14.05113792 0 0 0 0.000978 0.000978 0.999999
-6.39744520 10.07607746 11.38555050 0 0 0 0.003789 0.935854 0.352366
-10.14708900 9.33267212 8.01710320 0 0 0 0.001273 -0.378186 -0.925729
-5.66781425 9.84377766 10.30940819 0 0 0 0.000978 0.000978 -0.999999
-7.18538427 4.28417063 -4.45358181 0 0 0 0.000978 0.999999 0.000978
-5.83563852 5.88100624 13.13628101 0 0 0 -0.989709 -0.101181 0.101181
-8.45537949 4.28417063 -1.68261814 0 0 0 0.000978 0.999999 0.000978
-8.97657299 7.85584307 15.06109524 1 1 1 -0.443255 -0.142014 -0.885075
-7.77748442 9.71500397 4.79304552 0 0 0 0.001100 0.990809 -0.135260
-6.79361248 4.95944405 13.70028496 0 0 0 0.000978 0.000978 -0.999999
-5.83595371 6.97175789 5.69341135 0 0 0 -0.999999 0.000978 0.000978
-10.19440460 9.77419472 8.22174835 0 0 0 0.001273 -0.378186 0.925729
-7.77647638 4.28416967 3.89218807 0 0 0 0.000978 0.999999 0.000978
-9.11111164 5.41818333 14.22246838 0 0 0 0.999445 0.033281 0.001009
-12.08092499 4.28416824 14.92822838 0 0 0 0.000978 0.999999 0.000978
-6.99387646 10.20341015 9.91235447 0 0 0 -0.406019 0.913864 0.001289
-6.68631172 5.12699699 13.59143925 0 0 0 0.000978 -0.999999 0.000978
-7.56798792 4.28416777 17.73908997 0 0 0 0.000978 0.999999 0.000978
-10.21273136 5.83035231 5.77640486 0 0 0 0.000978 -0.999999 0.000978
-10.12183571 9.63029957 7.20280838 0 0 0 0.000978 -0.999999 0.000978
-8.19140625 9.51742077 12.35022163 0 0 0 0.001093 -0.991782 -0.127937
-8.91859055 4.28416967 2.94637203 0 0 0 0.000978 0.999999 0.000978
-5.66978216 10.79243183 8.62292099 0 0 0 -0.406019 0.913864 0.001289
-10.19830990 9.77598763 7.38223314 0 0 0 0.999999 0.000978 0.000978
-5.73594999 6.55472183 10.73864460 0 0 0 0.999999 0.000978 0.000978
-5.83595037 6.49936247 2.92224646 0 0 0 -0.999999 0.000978 0.000978
-8.87580109 9.63030052 9.00853539 0 0 0 0.000978 -0.999999 0.000978
-10.14491272 4.98887730 6.75943232 0 0 0 -0.992669 -0.100738 -0.066782
-10.28642845 9.87270355 7.87488890 0 0 0 0.000978 -0.999999 0.000978
-6.71989059 10.08173180 2.18289971 0 0 0 0.000978 -0.999999 0.000978
-10.08882046 6.79526329 9.98374462 0 0 0 -0.000978 0.000978 -0.999999
-6.99572659 7.51173258 16.09728622 1 1 1 -0.276988 0.957218 0.083740
-5.78541422 10.08173180 12.69302082 0 0 0 0.000978 -0.999999 0.000978
-10.08398724 7.05405092 7.08044052 0 0 0 -0.000978 -0.999999 0.000978
-7.86160278 9.40259075 5.96016932 0 0 0 -0.000978 0.000978 0.999999
-8.30947495 9.89170074 9.51800919 0 0 0 0.000978 0.999999 0.000978
-8.93070984 8.32821178 15.91127586 1 1 1 -0.821908 0.562813 -0.087805
-9.47094440 10.27889442 9.95883560 0 0 0 -0.381263 0.924466 0.001275
-5.83595085 7.98456097 11.65931892 0 0 0 -0.999999 0.000978 0.000978
-10.03977680 9.45532894 5.93710518 0 0 0 0.999999 0.000978 -0.000978
-7.88818693 6.10574293 7.75193882 0 0 0 0.021611 0.999257 -0.031902
-8.10509968 9.41842270 14.01174259 0 0 0 0.001093 0.991782 0.127937
-6.80390263 7.37867403 16.28688812 1 1 1 0.445579 0.014544 0.895124
-6.41426754 4.28416824 11.46199894 0 0 0 0.000978 0.999999 0.000978
-6.69363880 4.28417015 -2.88834763 0 0 0 0.000978 0.999999 0.000978
-6.03698635 4.28416967 0.81341457 0 0 0 0.000978 0.999999 0.000978
-7.06123257 8.03688812 15.63204670 1 1 1 -0.764603 0.643950 0.026656
-8.46549892 8.35002422 15.69557190 1 1 1 -0.019326 0.369766 0.928924
-5.83593988 5.78485489 2.65551353 0 0 0 -0.990216 -0.098673 -0.098673
-5.74694300 9.24664021 11.84251118 0 0 0 0.000978 0.000978 0.999999
-10.15004063 4.43102932 6.18912601 0 0 0 0.000978 0.000978 -0.999999
-7.81891012 9.31507874 13.91673660 0 0 0 0.001093 -0.991782 -0.127937
-6.09049749 9.89170170 6.13138723 0 0 0 0.000978 0.999999 0.000978
-8.79556561 8.63575268 15.99176598 1 1 1 0.378790 0.923716 0.057151
-8.55554390 4.41911221 13.58860588 0 0 0 0.999999 0.000978 0.000978
-5.72630310 8.90380955 4.25288010 0 0 0 -0.999999 0.000979 0.000979
-6.15034008 5.75099611 11.13979721 0 0 0 0.000978 -0.999999 0.000978
-6.17336750 4.28416824 16.30730247 0 0 0 0.000978 0.999999 0.000978
-10.15288258 9.30858135 10.62760162 0 0 0 0.001273 0.378186 0.925729
-9.71168423 4.43925047 14.05089188 0 0 0 0.999445 0.033281 0.001009
-5.77615976 9.33883953 12.46524715 0 0 0 0.001215 0.285453 -0.958392
-7.18812132 6.14280796 13.79033947 0 0 0 0.018902 0.999821 0.000995
-8.93681717 9.63030052 7.86461544 0 0 0 0.000978 -0.999999 0.000978
-7.38324833 9.67043400 4.55020809 0 0 0 0.001098 0.991141 -0.132811
-6.39639711 10.46920300 10.73377037 0 0 0 -0.406019 0.913864 0.001289
-9.23112297 9.48220348 10.79536915 0 0 0 0.959269 -0.282282 -0.010998
-6.74131536 4.28416872 8.84009361 0 0 0 0.000978 0.999999 0.000978
-10.23971844 4.38034153 6.41810083 0 0 0 0.623028 0.020907 0.781920
-7.52910948 10.36200523 10.64419365 0 0 0 -0.003789 0.935854 0.352366
-8.24820423 4.36006021 6.49985218 0 0 0 -0.078433 -0.995326 -0.056339
-6.80999279 4.28416777 19.85516548 0 0 0 0.000978 0.999999 0.000978
-9.00960350 9.29140091 10.80836391 0 0 0 0.959707 0.280680 -0.013482
-8.59948730 4.28416824 14.65441322 0 0 0 0.000978 0.999999 0.000978
-8.46009541 9.73104000 10.69639397 0 0 0 0.001093 -0.991782 -0.127937
-10.26398563 4.52412605 6.21968699 0 0 0 0.000978 0.000978 -0.999999
-10.22632885 5.67347145 5.95246887 0 0 0 0.000978 0.999999 0.000978
-8.75689697 9.20752907 1.07440305 0 0 0 0.001098 0.991141 -0.132811
-7.68523884 6.75419140 14.29884529 0 0 0 0.999999 0.000978 0.000978
-6.93799925 10.22827625 12.60108280 0 0 0 -0.420274 0.907321 -0.011783
