//X Y Z R G B Nx Ny Nz
703
10.84967995 8.58847523 -6.70405388 0 0 0 0.000978 -0.999999 0.000978
8.07798290 6.64470291 -10.51584053 0 0 0 -0.399807 0.001286 -0.916599
0.44081572 8.30766392 -4.86689425 0 0 0 0.000978 0.999999 0.000978
8.28479385 5.35534716 -2.90234876 0 0 0 0.294171 0.001221 0.955752
9.74300766 8.44346714 -12.01166153 0 0 0 0.000978 0.999999 0.000978
9.95420170 8.58854103 -1.83267879 0 0 0 0.000978 -0.999999 0.000978
1.22537065 6.89618492 -7.40934753 0 0 0 0.399807 0.001286 0.916599
-3.04118848 4.28417063 -6.18149662 0 0 0 0.000978 0.999999 0.000978
1.21574974 8.44366455 -3.32917476 0 0 0 0.000978 0.999999 0.000978
0.68819737 7.61143541 -0.69408387 0 0 0 -0.297091 0.001223 -0.954848
11.68358517 8.44342899 -6.06973076 0 0 0 0.000978 0.999999 0.000978
9.44575405 5.63332176 -11.00377750 0 0 0 0.399807 0.001286 0.916599
1.27813303 4.35553265 -4.16623402 0 0 0 0.000978 -0.999999 0.000978
7.34857655 8.58854389 -9.56882286 0 0 0 0.000978 -0.999999 0.000978
3.84731030 8.45062733 -3.82448339 0 0 0 0.000978 -0.999999 0.000978
10.87040424 8.45045090 -9.91936016 0 0 0 0.000978 -0.999999 0.000978
8.52708530 5.45393133 -10.71188831 0 0 0 -0.399807 0.001286 -0.916599
5.67332745 8.44360352 -2.47642589 0 0 0 0.000978 0.999999 0.000978
12.72397995 6.16606617 -3.01058364 0 0 0 -0.999987 0.000981 0.004907
2.74772096 6.85553885 -1.39176679 0 0 0 0.000978 0.999999 0.000978
0.77952480 8.58872223 -0.00625026 0 0 0 0.000978 -0.999999 0.000978
8.89111805 5.18372583 -0.10973370 0 0 0 -0.999976 0.000983 0.006883
4.82963848 8.58862400 -5.45883274 0 0 0 0.000978 -0.999999 0.000978
9.38501263 4.28416967 -8.02150536 0 0 0 0.000978 0.999999 0.000978
2.84091735 8.45062065 -6.63314104 0 0 0 0.000978 -0.999999 0.000978
0.34526539 8.44367886 -3.14395261 0 0 0 0.000978 0.999999 0.000978
10.44227028 8.45045948 -5.47117186 0 0 0 0.000978 -0.999999 0.000978
11.16921520 4.35534477 -3.18609142 0 0 0 0.000978 -0.999999 0.000978
9.07311630 6.98993444 -1.88555253 0 0 0 -0.999960 0.000985 0.008867
3.38182807 8.58863449 -6.82437181 0 0 0 0.000978 -0.999999 0.000978
8.26198196 5.73801804 -10.48705482 0 0 0 0.399807 0.001286 0.916599
-0.16432261 8.58872986 -1.05467081 0 0 0 0.000978 -0.999999 0.000978
9.02316761 4.35535574 -7.94509363 0 0 0 0.000978 -0.999999 0.000978
5.25363874 7.67602634 -8.97621918 0 0 0 -0.547504 0.001352 -0.836802
-0.95842963 8.16791821 -1.85506606 0 0 0 -0.394846 -0.259727 -0.881271
6.49624491 8.30758762 -2.78032851 0 0 0 0.000978 0.999999 0.000978
3.90874696 4.98307323 -1.55879533 0 0 0 0.294171 0.001221 0.955752
12.61845016 6.94620895 -4.84395218 0 0 0 0.999960 0.000985 -0.008867
12.03336525 8.58845139 -4.47929478 0 0 0 0.000978 -0.999999 0.000978
11.56533813 8.58845901 -12.64291382 0 0 0 0.000978 -0.999999 0.000978
0.97375369 8.44367123 -2.78240371 0 0 0 0.000978 0.999999 0.000978
8.77503681 4.64068365 -10.82012749 0 0 0 -0.399807 0.001286 -0.916599
9.00321674 8.11560822 1.68808663 0 0 0 0.999960 0.000985 -0.008867
11.79263401 8.44342709 -7.33553886 0 0 0 0.000978 0.999999 0.000978
12.72324944 6.15527534 -3.16525030 0 0 0 -0.999987 0.000981 0.004907
5.55302238 8.45056725 -8.32308674 0 0 0 0.000978 -0.999999 0.000978
12.72235107 5.07708216 -1.13723505 0 0 0 0.000978 -0.999999 0.000978
13.71215534 4.28417015 -11.21334648 0 0 0 0.000978 0.999999 0.000978
9.87683868 6.81428576 -11.30104733 0 0 0 -0.399807 0.001286 -0.916599
10.63715172 8.44348907 -0.33985305 0 0 0 0.000978 0.999999 0.000978
0.55975294 8.58872509 -0.23442960 0 0 0 0.000978 -0.999999 0.000978
10.82051849 4.92115545 -11.60387421 0 0 0 0.399807 0.001286 0.916599
8.12635231 7.25174856 -3.03192210 0 0 0 -0.931824 -0.220658 0.288121
-0.87985951 8.30770493 -1.74932551 0 0 0 0.000978 0.999999 0.000978
3.83940244 6.97769260 -8.47922611 0 0 0 -0.399807 0.001286 -0.916599
8.68054962 8.45051575 -5.35144138 0 0 0 0.000978 -0.999999 0.000978
12.79639721 5.34869051 -8.84352589 0 0 0 0.999987 0.000981 -0.004907
-0.64852846 4.35557318 -2.02352023 0 0 0 0.000978 -0.999999 0.000978
-2.27610588 7.94272709 -5.80496693 0 0 0 -0.899366 0.192618 0.392477
1.66271317 4.46476030 -0.73897707 0 0 0 0.925729 0.001273 -0.378186
12.68898201 5.00433874 -10.41100979 0 0 0 -0.999987 0.000981 0.004907
1.50523591 6.78943682 -0.85925126 0 0 0 0.000978 0.999999 0.000978
8.05174541 4.28416920 -1.63745689 0 0 0 0.000978 0.999999 0.000978
-1.88314629 8.24807644 -3.94272947 0 0 0 -0.093270 -0.973740 -0.207681
12.74745560 4.35528421 -1.26200318 0 0 0 0.000978 -0.999999 0.000978
13.73486042 4.28416872 -0.71073341 0 0 0 0.000978 0.999999 0.000978
8.60713100 7.86935091 -3.18659329 0 0 0 0.297091 0.001223 0.954848
8.90106201 8.58857822 0.88285565 0 0 0 0.000978 -0.999999 0.000978
6.73529243 5.48606396 -2.21256733 0 0 0 -0.925729 0.001273 0.378186
11.56172943 8.30743122 -5.65948629 0 0 0 0.000978 0.999999 0.000978
4.12332916 4.97004271 -1.62467778 0 0 0 0.294171 0.001221 0.955752
11.45937443 7.77697659 1.70160162 0 0 0 -0.000978 0.000978 0.999999
3.71161127 8.44361305 -5.18376398 0 0 0 0.000978 0.999999 0.000978
-0.16542315 8.45069504 -2.73612642 0 0 0 0.000978 -0.999999 0.000978
3.24469495 8.30760860 -6.55790901 0 0 0 0.000978 0.999999 0.000978
5.36837244 8.45061302 -2.56479359 0 0 0 0.000978 -0.999999 0.000978
12.77933598 6.69639874 -12.45500278 0 0 0 0.999987 0.000981 -0.004907
2.37733364 8.30761528 -7.47613335 0 0 0 0.000978 0.999999 0.000978
1.98012996 6.37625360 -7.74499321 0 0 0 0.399807 0.001286 0.916599
13.11658478 4.28416872 0.30269432 0 0 0 0.000978 0.999999 0.000978
6.52291822 6.84261799 -9.72658157 0 0 0 0.000978 -0.999999 0.000978
10.55917549 7.90161180 -11.41340637 0 0 0 0.900361 0.183541 -0.394540
9.58196640 4.35536814 -4.66947651 0 0 0 0.000978 -0.999999 0.000978
5.83867455 8.58857346 -9.06681728 0 0 0 0.000978 -0.999999 0.000978
2.86834717 4.35551643 -3.24335623 0 0 0 0.000978 -0.999999 0.000978
8.31993771 4.28416967 -6.58681488 0 0 0 0.000978 0.999999 0.000978
2.51038074 8.45064735 -3.75655222 0 0 0 0.000978 -0.999999 0.000978
12.44550037 8.45043087 -0.30032349 0 0 0 0.000978 -0.999999 0.000978
12.63616657 7.75856638 -9.52370644 0 0 0 -0.008027 -0.184629 -0.982776
-2.31580114 4.97347498 -4.78671551 0 0 0 0.912475 0.001291 -0.409130
12.67639828 7.19853354 -1.14999413 0 0 0 0.999960 0.000985 -0.008867
-3.27400398 8.58874321 -5.75677204 0 0 0 0.000978 -0.999999 0.000978
11.98742676 8.58845234 -3.84360456 0 0 0 0.000978 -0.999999 0.000978
2.47382784 6.34061289 -1.30198467 0 0 0 0.953006 0.001227 -0.302950
-0.70545357 8.30767441 -5.71642733 0 0 0 0.000978 0.999999 0.000978
8.30282116 8.30749607 -10.16925430 0 0 0 0.000978 0.999999 0.000978
-3.80568051 8.58875656 -5.64331627 0 0 0 0.000978 -0.999999 0.000978
8.46587849 8.58859158 -0.29049170 0 0 0 0.000978 -0.999999 0.000978
8.65167618 8.44348812 -9.63961792 0 0 0 0.000978 0.999999 0.000978
4.10867214 4.28416967 -5.99129534 0 0 0 0.000978 0.999999 0.000978
7.14228249 4.28416920 -1.96626663 0 0 0 0.000978 0.999999 0.000978
12.63840485 7.19362831 -6.78032637 0 0 0 -0.008027 0.184629 -0.982776
7.73660564 8.35528660 -5.10221958 0 0 0 0.000978 -0.999999 0.000978
5.21806574 5.34459162 -1.96078563 0 0 0 0.294171 0.001221 0.955752
3.66759086 4.35546255 -8.03833103 0 0 0 0.000978 -0.999999 0.000978
1.48433316 7.20247602 -0.97646552 0 0 0 0.931824 0.220658 -0.288121
0.33464614 6.28355217 -0.60727566 0 0 0 0.953006 0.001227 -0.302950
2.74822593 4.28417063 -8.72512531 0 0 0 0.000978 0.999999 0.000978
13.40409184 8.58842182 -4.94509554 0 0 0 0.000978 -0.999999 0.000978
3.49397302 4.68858767 -8.40580940 0 0 0 0.399807 0.001286 0.916599
8.99294472 5.11199284 -1.45937932 0 0 0 0.002938 0.000979 -0.999995
10.43902493 4.28416967 -6.02078819 0 0 0 0.000978 0.999999 0.000978
9.17291641 8.45048523 -6.20651722 0 0 0 0.000978 -0.999999 0.000978
13.87464142 8.45991898 -8.90273380 0 0 0 -0.999976 0.000983 0.006883
6.01301813 6.78599834 -2.41225195 0 0 0 -0.953006 0.001227 0.302950
11.73548889 8.58847904 -1.19212818 0 0 0 0.000978 -0.999999 0.000978
-1.32009959 8.58871937 -4.94281721 0 0 0 0.000978 -0.999999 0.000978
12.20964432 4.35530949 1.39870727 0 0 0 0.000978 -0.999999 0.000978
6.96618605 8.58856487 -7.27956486 0 0 0 0.000978 -0.999999 0.000978
11.06806183 4.35531759 -6.32596493 0 0 0 0.000978 -0.999999 0.000978
4.36930609 8.26661301 -8.67608833 0 0 0 -0.399807 0.001286 -0.916599
10.93834877 4.28417015 -12.82846260 0 0 0 0.000978 0.999999 0.000978
11.66069889 8.44342899 -5.27989769 0 0 0 0.000978 0.999999 0.000978
12.34756279 4.35529280 -7.93965435 0 0 0 0.000978 -0.999999 0.000978
8.99104023 4.35531092 1.11730659 0 0 0 0.000978 -0.999999 0.000978
12.71972656 8.10769367 -5.30995178 0 0 0 0.999976 0.000983 -0.006883
4.89968443 4.28417015 -9.00265312 0 0 0 0.000978 0.999999 0.000978
8.97491932 5.29800844 -2.68921137 0 0 0 0.999976 0.000983 -0.006883
3.93509865 7.63249350 -1.73752058 0 0 0 -0.931824 -0.220658 0.288121
0.77693301 4.28417015 -2.99853992 0 0 0 0.000978 0.999999 0.000978
12.80259609 5.04698181 -7.53155231 0 0 0 0.999987 0.000981 -0.004907
12.71257877 6.04292488 -1.46747065 0 0 0 0.999976 0.000983 -0.006883
8.88128662 6.70157480 -1.67745483 0 0 0 -0.999976 0.000983 0.006883
7.93074608 4.28416967 -6.08309555 0 0 0 0.000978 0.999999 0.000978
9.57366276 8.45047665 -9.95773411 0 0 0 0.000978 -0.999999 0.000978
12.63937378 4.35528755 -6.01725101 0 0 0 0.000978 -0.999999 0.000978
13.66746044 4.28416967 -9.74156761 0 0 0 0.000978 0.999999 0.000978
12.79705048 6.72901154 -6.28329849 0 0 0 0.999976 0.000983 -0.006883
5.73044300 8.44354630 -9.25008202 0 0 0 0.000978 0.999999 0.000978
1.40490580 8.35553360 -7.43955421 0 0 0 0.000978 -0.999999 0.000978
3.65208197 8.45059204 -8.79217339 0 0 0 0.000978 -0.999999 0.000978
1.92753410 8.44366550 -1.63611054 0 0 0 0.000978 0.999999 0.000978
5.04310131 8.45060921 -3.82241940 0 0 0 0.000978 -0.999999 0.000978
10.61255074 8.30744934 -8.71319008 0 0 0 0.000978 0.999999 0.000978
1.98309541 4.28416967 -4.07110596 0 0 0 0.000978 0.999999 0.000978
10.53374577 8.30748463 -3.02823186 0 0 0 0.000978 0.999999 0.000978
3.63185501 4.35546637 -7.65604448 0 0 0 0.000978 -0.999999 0.000978
10.87483978 8.44345474 -4.20898056 0 0 0 0.000978 0.999999 0.000978
1.66136432 5.74003839 -0.97339040 0 0 0 -0.294171 0.001221 -0.955752
12.28739452 4.35530519 -1.73214734 0 0 0 0.000978 -0.999999 0.000978
11.63719559 4.71799183 -11.96423149 0 0 0 0.396706 0.001284 0.917945
7.88716125 4.28416920 1.25423050 0 0 0 0.000978 0.999999 0.000978
3.62269306 8.30760860 -5.68686008 0 0 0 0.000978 0.999999 0.000978
6.89288950 6.83111572 -9.98287487 0 0 0 -0.917945 0.001284 0.396706
10.57345486 8.58847904 -8.00561047 0 0 0 0.000978 -0.999999 0.000978
12.71459961 5.90371037 -4.99431372 0 0 0 -0.999987 0.000981 0.004907
5.08115387 8.44359112 -5.29636288 0 0 0 0.000978 0.999999 0.000978
4.29490423 7.91927719 -1.87959421 0 0 0 0.297091 0.001223 0.954848
1.47336483 8.58866215 -6.96897984 0 0 0 0.000978 -0.999999 0.000978
12.74026489 6.32058716 0.43348050 0 0 0 -0.999987 0.000981 0.004907
3.48961067 4.28416920 0.40903473 0 0 0 0.000978 0.999999 0.000978
1.39192796 7.30664921 -7.40812016 0 0 0 -0.399807 0.001286 -0.916599
7.75254440 8.44350624 -9.41993427 0 0 0 0.000978 0.999999 0.000978
12.69102669 6.85552549 1.66368639 0 0 0 0.000978 0.999999 0.000978
3.03986120 8.44363403 -3.79888439 0 0 0 0.000978 0.999999 0.000978
-2.59031010 8.58874893 -3.71650243 0 0 0 0.000978 -0.999999 0.000978
12.71111965 8.28350163 -5.71437454 0 0 0 -0.999960 0.000985 0.008867
12.98279095 8.45040894 -9.12217426 0 0 0 0.000978 -0.999999 0.000978
10.70473576 8.58847713 -7.10423136 0 0 0 0.000978 -0.999999 0.000978
9.17136765 4.28416967 -7.21635056 0 0 0 0.000978 0.999999 0.000978
5.48351669 8.58863354 -2.82305503 0 0 0 0.000978 -0.999999 0.000978
8.96381378 5.25757933 -0.96167588 0 0 0 0.002938 0.000979 -0.999995
7.94783497 4.28416967 -4.33483505 0 0 0 0.000978 0.999999 0.000978
5.09531736 8.21106339 -9.10494804 0 0 0 0.399807 0.001286 0.916599
1.97981405 6.03436518 -0.96655208 0 0 0 0.294171 0.001221 0.955752
4.47244120 8.30757523 -8.46973991 0 0 0 0.000978 0.999999 0.000978
7.25000381 8.58854580 -10.23866081 0 0 0 0.000978 -0.999999 0.000978
11.70974731 4.35530472 -10.13209629 0 0 0 0.000978 -0.999999 0.000978
10.54373455 7.96298838 -11.41837025 0 0 0 -0.900361 0.183541 0.394540
6.30938625 8.58862495 -2.31249380 0 0 0 0.000978 -0.999999 0.000978
8.15311527 4.28416920 -1.55015373 0 0 0 0.000978 0.999999 0.000978
12.87903214 8.44340515 -8.40383053 0 0 0 0.000978 0.999999 0.000978
4.57732868 8.30762196 -2.02540779 0 0 0 0.000978 0.999999 0.000978
9.44807911 4.28417015 -12.11481762 0 0 0 0.000978 0.999999 0.000978
12.65660191 8.31563663 0.64709377 0 0 0 0.999960 0.000985 -0.008867
9.36742592 8.30747509 -8.08960152 0 0 0 0.000978 0.999999 0.000978
-0.31410652 8.30769825 -1.46181893 0 0 0 0.000978 0.999999 0.000978
-0.61069942 8.44370079 -2.04185534 0 0 0 0.000978 0.999999 0.000978
9.56064034 8.30752373 -0.56045353 0 0 0 0.000978 0.999999 0.000978
5.92432737 4.35541964 -8.17749214 0 0 0 0.000978 -0.999999 0.000978
13.39482594 4.28416967 -5.18609238 0 0 0 0.000978 0.999999 0.000978
6.50742245 8.58861065 -3.82069778 0 0 0 0.000978 -0.999999 0.000978
7.98980093 8.44351673 -6.36226654 0 0 0 0.000978 0.999999 0.000978
12.74823570 4.35528421 1.62034833 0 0 0 0.000978 -0.999999 0.000978
-0.29814583 4.97154570 -0.37177923 0 0 0 -0.294171 0.001221 -0.955752
-0.03938639 4.28417015 -3.44542933 0 0 0 0.000978 0.999999 0.000978
-1.06661570 6.36126041 -6.46009302 0 0 0 0.917945 0.001284 -0.396706
7.02048683 8.45058346 -3.28791904 0 0 0 0.000978 -0.999999 0.000978
9.04357052 4.28416920 -2.18585396 0 0 0 0.000978 0.999999 0.000978
5.34237814 4.28416967 -8.08549881 0 0 0 0.000978 0.999999 0.000978
0.16877151 4.35555315 -3.36522079 0 0 0 0.000978 -0.999999 0.000978
-0.88680136 8.45069313 -4.39553070 0 0 0 0.000978 -0.999999 0.000978
1.61034834 7.70278788 -7.50370884 0 0 0 -0.399807 0.001286 -0.916599
12.80501270 4.35528708 1.59594631 0 0 0 0.000978 -0.999999 0.000978
5.84593534 4.28417015 -8.11221409 0 0 0 0.000978 0.999999 0.000978
8.53922272 8.45049763 -9.44672012 0 0 0 0.000978 -0.999999 0.000978
6.18818712 7.04330873 -9.50657177 0 0 0 -0.399807 0.001286 -0.916599
12.96895695 8.45040989 -8.52047729 0 0 0 0.000978 -0.999999 0.000978
-1.79784834 8.58872604 -4.99529743 0 0 0 0.000978 -0.999999 0.000978
-2.34944224 7.29486465 -4.96988726 0 0 0 -0.394846 0.259727 -0.881271
1.00758052 4.28416967 -0.44838738 0 0 0 0.000978 0.999999 0.000978
11.58205223 8.44342995 -12.74534130 0 0 0 0.000978 0.999999 0.000978
3.61504507 5.21173859 -8.45865250 0 0 0 0.399807 0.001286 0.916599
10.37921429 4.35533047 -8.00723648 0 0 0 0.000978 -0.999999 0.000978
5.82266140 8.58861256 -4.90387678 0 0 0 0.000978 -0.999999 0.000978
11.62736320 8.45043659 -4.08170414 0 0 0 0.000978 -0.999999 0.000978
4.28430843 7.94670248 -1.80816841 0 0 0 -0.297091 0.001223 -0.954848
9.61692619 8.58855343 0.62719131 0 0 0 0.000978 -0.999999 0.000978
12.55611420 8.45041752 -7.04250145 0 0 0 0.000978 -0.999999 0.000978
-0.35083833 8.58869076 -6.88348246 0 0 0 0.000978 -0.999999 0.000978
6.81270504 8.58861828 -1.79647136 0 0 0 0.000978 -0.999999 0.000978
8.16644669 8.44349766 -10.61685181 0 0 0 0.000978 0.999999 0.000978
11.06899834 4.35535145 -0.76003885 0 0 0 0.000978 -0.999999 0.000978
11.58836365 8.45043659 -9.05234432 0 0 0 0.000978 -0.999999 0.000978
9.44057560 8.30749226 -4.84886646 0 0 0 0.000978 0.999999 0.000978
10.18759918 8.44346905 -4.75324106 0 0 0 0.000978 0.999999 0.000978
9.47631264 5.50330544 -11.01711750 0 0 0 0.399807 0.001286 0.916599
0.27754688 8.44367027 -4.40037823 0 0 0 0.000978 0.999999 0.000978
6.50367880 5.59794140 -10.12098122 0 0 0 -0.333691 -0.309749 0.890341
6.18262100 4.28416967 -6.21254539 0 0 0 0.000978 0.999999 0.000978
4.93332386 4.35549593 -1.90638733 0 0 0 0.000978 -0.999999 0.000978
11.00207901 8.30745029 -4.15155602 0 0 0 0.000978 0.999999 0.000978
-2.68652153 4.60437250 -5.36693573 0 0 0 -0.912475 0.001291 0.409130
8.99626255 4.67251587 0.70963407 0 0 0 0.999976 0.000983 -0.006883
1.59604549 7.94498205 -1.00499952 0 0 0 0.931824 0.220658 -0.288121
6.58123636 4.95139599 -9.85323620 0 0 0 -0.396706 0.001284 -0.917945
4.35088730 4.28416920 -2.83167291 0 0 0 0.000978 0.999999 0.000978
10.11240196 4.35533571 -5.29522657 0 0 0 0.000978 -0.999999 0.000978
12.60749340 7.94512939 -11.82790089 0 0 0 -0.008027 -0.184629 -0.982776
13.40564823 8.58842182 -5.78429461 0 0 0 0.000978 -0.999999 0.000978
12.69576836 8.10618496 -2.76368833 0 0 0 -0.999960 0.000985 0.008867
0.95370162 4.28417063 -8.51323986 0 0 0 0.000978 0.999999 0.000978
10.91635990 8.45048428 -1.18345940 0 0 0 0.000978 -0.999999 0.000978
8.13440132 4.28417015 -9.78457832 0 0 0 0.000978 0.999999 0.000978
-0.41485199 8.03592300 -6.65801287 0 0 0 0.399807 0.001286 0.916599
4.21117020 8.35553169 -1.76179075 0 0 0 0.000978 -0.999999 0.000978
2.41764355 5.42795467 -7.93597889 0 0 0 0.399807 0.001286 0.916599
-2.65228963 4.28417063 -6.42610741 0 0 0 0.000978 0.999999 0.000978
13.00897312 4.28416872 -2.41851044 0 0 0 0.000978 0.999999 0.000978
0.29043546 4.28416967 -1.55535889 0 0 0 0.000978 0.999999 0.000978
7.70962334 5.06563473 -2.72575998 0 0 0 0.294171 0.001221 0.955752
12.61236668 7.07489872 -11.43018341 0 0 0 -0.008027 -0.184629 -0.982776
12.60940552 8.28938007 -5.91737270 0 0 0 0.999960 0.000985 -0.008867
12.64186096 8.02746201 -7.48613977 0 0 0 -0.008027 -0.184629 -0.982776
3.85917711 8.44361210 -5.09246731 0 0 0 0.000978 0.999999 0.000978
12.78975677 8.58843613 -3.77157307 0 0 0 0.000978 -0.999999 0.000978
4.51157379 8.44361019 -4.01522827 0 0 0 0.000978 0.999999 0.000978
12.68417931 6.81082201 -11.43044090 0 0 0 -0.999987 0.000981 0.004907
12.84184933 4.42934561 0.77227247 0 0 0 0.999987 0.000981 -0.004907
-0.49603319 8.45071888 -0.05789661 0 0 0 0.000978 -0.999999 0.000978
9.19612026 4.43766499 1.78042650 0 0 0 -0.006883 0.000983 -0.999976
9.33247852 6.82045126 -10.95432091 0 0 0 0.399807 0.001286 0.916599
12.59699631 7.95071936 -11.47110176 0 0 0 0.999960 0.000985 -0.008867
4.73594475 8.58859634 -9.16329479 0 0 0 0.000978 -0.999999 0.000978
11.45086098 4.35532236 -3.66180253 0 0 0 0.000978 -0.999999 0.000978
3.49237943 7.52339268 -8.35762024 0 0 0 0.899366 0.192618 -0.392477
-0.99639356 5.57518482 -1.61067581 0 0 0 -0.912475 0.001291 0.409130
12.72047710 7.64786911 0.16896315 0 0 0 -0.999960 0.000985 0.008867
-1.01722205 8.45069981 -3.72782803 0 0 0 0.000978 -0.999999 0.000978
8.57633877 8.30749035 -7.57552624 0 0 0 0.000978 0.999999 0.000978
2.66569710 8.58865643 -5.30901003 0 0 0 0.000978 -0.999999 0.000978
4.24362326 4.28416920 -2.47140241 0 0 0 0.000978 0.999999 0.000978
7.74361086 7.37302351 -10.19896126 0 0 0 -0.899366 0.192618 0.392477
12.72006512 6.47378063 -5.25534534 0 0 0 0.999976 0.000983 -0.006883
12.98541069 8.44340611 -2.78643465 0 0 0 0.000978 0.999999 0.000978
7.96405506 8.58853149 -10.96944237 0 0 0 0.000978 -0.999999 0.000978
3.60683107 5.49003506 -1.63107741 0 0 0 -0.925729 0.001273 0.378186
7.58624315 6.77791309 -2.79246736 0 0 0 -0.294171 0.001221 -0.955752
11.78461552 8.58845615 -5.85924673 0 0 0 0.000978 -0.999999 0.000978
11.88762951 8.58845425 -4.42150736 0 0 0 0.000978 -0.999999 0.000978
6.47298002 4.28417015 -7.17170000 0 0 0 0.000978 0.999999 0.000978
0.07763672 8.30767441 -4.09123993 0 0 0 0.000978 0.999999 0.000978
12.96268559 4.28417015 -12.76199722 0 0 0 0.000978 0.999999 0.000978
10.46327782 8.30745220 -11.21992970 0 0 0 0.000978 0.999999 0.000978
11.00310040 4.93956661 -11.68357277 0 0 0 0.399807 0.001286 0.916599
13.27865791 4.28416872 -2.55632782 0 0 0 0.000978 0.999999 0.000978
7.16117096 8.30751801 -10.00379467 0 0 0 0.000978 0.999999 0.000978
-1.87127519 5.60385704 -6.16607666 0 0 0 0.376432 -0.309375 0.873262
6.99946928 6.71696663 -10.04506397 0 0 0 -0.399807 0.001286 -0.916599
4.16807079 5.09102535 -8.70005226 0 0 0 0.399807 0.001286 0.916599
6.69250774 5.82078934 -10.06545353 0 0 0 -0.333691 -0.309749 0.890341
8.85381222 7.41220045 -10.67744255 0 0 0 0.899366 -0.192618 -0.392477
11.29838848 4.28416967 -6.17751503 0 0 0 0.000978 0.999999 0.000978
-2.24703217 6.47495747 -5.89981747 0 0 0 0.399807 0.001286 0.916599
9.48165321 8.44352341 -3.06790495 0 0 0 0.000978 0.999999 0.000978
8.27069187 7.81986427 -4.32753992 0 0 0 -0.836802 0.001352 0.547504
3.21246409 8.30761623 -5.67126274 0 0 0 0.000978 0.999999 0.000978
8.18513966 8.45054817 -4.46496201 0 0 0 0.000978 -0.999999 0.000978
2.04209614 8.45063496 -6.35191154 0 0 0 0.000978 -0.999999 0.000978
-0.65796852 8.44367981 -4.98266363 0 0 0 0.000978 0.999999 0.000978
12.24539185 8.45042324 -6.29290199 0 0 0 0.000978 -0.999999 0.000978
3.22369456 8.58865738 -4.14552307 0 0 0 0.000978 -0.999999 0.000978
2.24989653 8.44364738 -3.58867264 0 0 0 0.000978 0.999999 0.000978
4.89185715 4.98767757 -9.12510014 0 0 0 -0.399807 0.001286 -0.916599
9.02148438 7.27682686 -0.36929610 0 0 0 -0.008218 -0.219533 -0.975570
11.25361252 4.28416872 -0.43315887 0 0 0 0.000978 0.999999 0.000978
8.28337383 8.44356441 -2.08069563 0 0 0 0.000978 0.999999 0.000978
-2.84502482 5.84240627 -5.71622705 0 0 0 -0.916599 0.001286 0.399807
1.66278410 6.08939028 -7.71558475 0 0 0 -0.399807 0.001286 -0.916599
12.41637802 7.22686911 1.70706904 0 0 0 0.985368 -0.170436 -0.001129
3.24773932 4.28417015 -8.00606155 0 0 0 0.000978 0.999999 0.000978
-2.05781221 8.58872318 -5.86450052 0 0 0 0.000978 -0.999999 0.000978
12.24850082 8.24269295 1.71744192 0 0 0 -0.985368 -0.170436 0.001129
8.41050529 4.35537052 -6.36251402 0 0 0 0.000978 -0.999999 0.000978
8.64430904 8.31157589 1.50887442 0 0 0 0.999987 0.000981 -0.004907
6.15003252 8.25784492 -2.35057402 0 0 0 -0.297091 0.001223 -0.954848
11.38218117 7.92085361 1.73545694 0 0 0 0.985368 -0.170436 -0.001129
2.48045349 8.30762959 -5.30619049 0 0 0 0.000978 0.999999 0.000978
4.00615072 6.71828461 -8.73846817 0 0 0 -0.399807 0.001286 -0.916599
-1.83285546 5.43989134 -3.71336889 0 0 0 0.912475 0.001291 -0.409130
9.32857704 8.45053959 -0.95616698 0 0 0 0.000978 -0.999999 0.000978
-0.83396280 8.58875275 0.43709403 0 0 0 0.000978 -0.999999 0.000978
11.16881561 4.35534811 0.79192817 0 0 0 0.000978 -0.999999 0.000978
-0.34072745 8.04460144 -0.52215886 0 0 0 0.409130 0.001291 0.912475
4.44785786 4.28416920 -3.25450158 0 0 0 0.000978 0.999999 0.000978
9.48027515 8.30752659 -1.04284036 0 0 0 0.000978 0.999999 0.000978
8.14135933 8.58852768 -10.94800282 0 0 0 0.000978 -0.999999 0.000978
6.43292046 8.58861256 -3.66503620 0 0 0 0.000978 -0.999999 0.000978
1.64083385 8.30763626 -6.11026525 0 0 0 0.000978 0.999999 0.000978
4.09565926 8.45062160 -4.03667593 0 0 0 0.000978 -0.999999 0.000978
7.17321062 8.30751801 -10.22149086 0 0 0 0.000978 0.999999 0.000978
11.02439880 4.28416872 1.06367683 0 0 0 0.000978 0.999999 0.000978
10.89900208 8.45045090 -6.84820557 0 0 0 0.000978 -0.999999 0.000978
-0.95999080 5.06237316 -1.52980936 0 0 0 -0.912475 0.001291 0.409130
12.73781872 5.96011019 -0.08303079 0 0 0 -0.999987 0.000981 0.004907
3.12368751 8.58867073 -2.49789643 0 0 0 0.000978 -0.999999 0.000978
7.85235167 8.37455940 -10.66708183 0 0 0 0.409130 0.001291 0.912475
3.64011908 8.58862114 -8.13067150 0 0 0 0.000978 -0.999999 0.000978
3.62271023 4.28416920 0.39447021 0 0 0 0.000978 0.999999 0.000978
3.71835351 8.58864784 -4.42374325 0 0 0 0.000978 -0.999999 0.000978
5.05486345 4.28417015 -9.88778114 0 0 0 0.000978 0.999999 0.000978
0.94707417 8.45065308 -6.14104748 0 0 0 0.000978 -0.999999 0.000978
8.64735508 8.08795357 -3.16777158 0 0 0 0.931824 0.220658 -0.288121
11.05894470 4.35531759 -7.66411734 0 0 0 0.000978 -0.999999 0.000978
10.99415207 6.88618565 1.77147543 0 0 0 0.000978 0.000978 -0.999999
-0.04544818 8.58870506 -4.27471256 0 0 0 0.000978 -0.999999 0.000978
12.48842335 4.35529804 -0.58304429 0 0 0 0.000978 -0.999999 0.000978
7.49681520 8.30756950 -3.27004862 0 0 0 0.000978 0.999999 0.000978
1.82804179 7.15965986 -7.62601852 0 0 0 0.899366 -0.192618 -0.392477
3.99850035 8.44359779 -6.66300678 0 0 0 0.000978 0.999999 0.000978
-2.39183950 7.84578085 -5.06985092 0 0 0 0.394846 -0.259727 0.881271
9.64957047 4.35537720 -4.18439054 0 0 0 0.000978 -0.999999 0.000978
1.89596295 4.35549259 -7.62975025 0 0 0 0.000978 -0.999999 0.000978
2.22804809 6.07169104 -7.93247747 0 0 0 -0.396706 0.001284 -0.917945
2.69108510 5.93991232 -8.11771393 0 0 0 0.920595 0.001280 -0.390517
8.24043465 6.89994431 -3.03703594 0 0 0 0.931824 -0.220658 -0.288121
-0.62591922 4.28417015 -6.36334801 0 0 0 0.000978 0.999999 0.000978
9.76004791 8.45047379 -5.95160866 0 0 0 0.000978 -0.999999 0.000978
2.37788057 7.59057188 -7.83707380 0 0 0 -0.399807 0.001286 -0.916599
8.60945606 4.92053604 -10.63873672 0 0 0 0.399807 0.001286 0.916599
2.80726838 8.30761337 -6.75907803 0 0 0 0.000978 0.999999 0.000978
8.89575768 6.03521490 0.62760520 0 0 0 -0.999976 0.000983 0.006883
9.99701881 4.35533762 -5.45051098 0 0 0 0.000978 -0.999999 0.000978
12.61548233 7.19479847 -10.84673214 0 0 0 0.008027 -0.184629 0.982776
-2.35638094 7.09404516 -5.77844286 0 0 0 -0.899366 0.192618 0.392477
1.06401098 6.56048822 -7.45421314 0 0 0 -0.399807 0.001286 -0.916599
6.00814915 8.58861256 -4.59244776 0 0 0 0.000978 -0.999999 0.000978
9.61953354 4.35534477 -7.83260298 0 0 0 0.000978 -0.999999 0.000978
-0.83650762 7.15344000 -6.43495417 0 0 0 -0.399807 0.001286 -0.916599
5.18748283 7.79873753 -2.12240505 0 0 0 0.931824 -0.220658 -0.288121
-0.83277786 8.44372177 0.19356847 0 0 0 0.000978 0.999999 0.000978
5.60420227 4.35547972 -2.98429346 0 0 0 0.000978 -0.999999 0.000978
8.62406731 8.37951851 -2.24326015 0 0 0 0.999987 0.000981 -0.004907
12.69513607 4.35528612 -10.07306099 0 0 0 0.000978 -0.999999 0.000978
8.38204193 7.49192142 -4.10050869 0 0 0 0.536052 0.212283 0.817059
2.54283357 4.28416967 -2.81819677 0 0 0 0.000978 0.999999 0.000978
7.24865627 4.35538960 -8.05220222 0 0 0 0.000978 -0.999999 0.000978
8.88129997 4.49163961 -1.67171705 0 0 0 -0.999976 0.000983 0.006883
8.66067886 8.58858681 -2.03181005 0 0 0 0.000978 -0.999999 0.000978
2.89099216 8.45061588 -7.17289448 0 0 0 0.000978 -0.999999 0.000978
-0.05427560 4.66708231 -0.34204951 0 0 0 0.294171 0.001221 0.955752
8.99353123 4.35535622 -9.08056259 0 0 0 0.000978 -0.999999 0.000978
-1.28012848 8.30768681 -5.14779520 0 0 0 0.000978 0.999999 0.000978
9.74193478 4.35534239 -7.86651516 0 0 0 0.000978 -0.999999 0.000978
12.63601971 4.28417015 -13.37951469 0 0 0 0.000978 0.999999 0.000978
-1.88191509 4.91744947 -3.57873201 0 0 0 -0.912475 0.001291 0.409130
9.11016178 7.70745039 1.67140484 0 0 0 -0.999999 0.000978 0.000978
3.05988216 8.44359589 -9.01190758 0 0 0 0.000978 0.999999 0.000978
6.66275024 4.28416920 0.37883949 0 0 0 0.000978 0.999999 0.000978
0.42044288 4.28416967 0.44573498 0 0 0 0.000978 0.999999 0.000978
8.24786758 8.45055580 -3.95230675 0 0 0 0.000978 -0.999999 0.000978
11.33326721 4.35531187 -10.11928940 0 0 0 0.000978 -0.999999 0.000978
0.55983472 8.45066452 -5.39715099 0 0 0 0.000978 -0.999999 0.000978
11.50893784 8.45043850 -7.01482487 0 0 0 0.000978 -0.999999 0.000978
0.01296115 8.45066738 -6.14322996 0 0 0 0.000978 -0.999999 0.000978
8.90204811 4.53258753 1.63135362 0 0 0 -0.999976 0.000983 0.006883
-1.63039088 4.28417015 -5.40669727 0 0 0 0.000978 0.999999 0.000978
8.90230656 5.17406464 1.67137325 0 0 0 -0.999976 0.000983 0.006883
2.25792694 8.45063305 -6.23093367 0 0 0 0.000978 -0.999999 0.000978
4.39764690 8.58860111 -10.04850769 0 0 0 0.000978 -0.999999 0.000978
8.23639202 7.77393150 -10.43186760 0 0 0 0.899366 -0.192618 -0.392477
12.54154110 7.11622620 1.72342360 0 0 0 0.985368 -0.170436 -0.001129
6.95024490 4.28416920 0.68411064 0 0 0 0.000978 0.999999 0.000978
12.65633488 4.35528660 -10.05613899 0 0 0 0.000978 -0.999999 0.000978
4.37780666 8.58862782 -5.77052832 0 0 0 0.000978 -0.999999 0.000978
9.98935699 4.28416920 -2.46824265 0 0 0 0.000978 0.999999 0.000978
10.67389393 4.80049562 -11.53987408 0 0 0 0.399807 0.001286 0.916599
3.37547088 4.28417015 -7.51347351 0 0 0 0.000978 0.999999 0.000978
12.15650558 8.30741882 -12.22445107 0 0 0 0.000978 0.999999 0.000978
2.32001400 8.58869553 -0.05324197 0 0 0 0.000978 -0.999999 0.000978
8.38008022 5.68023872 -2.93160057 0 0 0 0.294171 0.001221 0.955752
12.66539383 6.90464592 -5.03473186 0 0 0 -0.008027 0.184629 -0.982776
11.96921158 8.58845234 -8.70540619 0 0 0 0.000978 -0.999999 0.000978
12.68731594 7.56228161 0.14586261 0 0 0 0.999960 0.000985 -0.008867
6.82140875 7.45787001 -6.49954700 0 0 0 0.536052 -0.212283 0.817059
-0.97718358 5.07336473 -1.56801844 0 0 0 -0.912475 0.001291 0.409130
8.99271774 5.75214386 0.14371216 0 0 0 0.999976 0.000983 -0.006883
13.00435638 8.44340324 -4.63064098 0 0 0 0.000978 0.999999 0.000978
10.35843277 8.44345570 -6.41696167 0 0 0 0.000978 0.999999 0.000978
5.29932499 8.45057011 -8.42463303 0 0 0 0.000978 -0.999999 0.000978
5.14946461 8.44358349 -6.19150162 0 0 0 0.000978 0.999999 0.000978
1.52860534 4.28416920 0.71972191 0 0 0 0.000978 0.999999 0.000978
6.18008947 8.30757427 -5.19399071 0 0 0 0.000978 0.999999 0.000978
9.91496563 8.44346428 -10.22964478 0 0 0 0.000978 0.999999 0.000978
7.53148365 5.56898832 -2.67106080 0 0 0 0.294171 0.001221 0.955752
7.79054642 8.58858204 -4.70714903 0 0 0 0.000978 -0.999999 0.000978
6.62340117 8.44357872 -3.95160532 0 0 0 0.000978 0.999999 0.000978
3.70420527 6.38491440 -1.65063691 0 0 0 -0.925729 0.001273 0.378186
-2.13291407 6.93911505 -4.64051819 0 0 0 -0.912475 0.001291 0.409130
3.63584042 8.44359875 -7.25694656 0 0 0 0.000978 0.999999 0.000978
3.93800712 4.28416920 -3.39967370 0 0 0 0.000978 0.999999 0.000978
2.22765946 4.37781715 -1.14727235 0 0 0 -0.294171 0.001221 -0.955752
1.92696321 8.19268322 -1.10530543 0 0 0 0.931824 -0.220658 -0.288121
-1.38830733 8.58875847 -0.23505613 0 0 0 0.000978 -0.999999 0.000978
10.10392284 8.44345951 -7.23143864 0 0 0 0.000978 0.999999 0.000978
1.36222398 4.28417015 -6.24729824 0 0 0 0.000978 0.999999 0.000978
2.26014066 8.30766392 -0.98454624 0 0 0 0.000978 0.999999 0.000978
8.04320431 6.70765734 -10.50065899 0 0 0 -0.399807 0.001286 -0.916599
5.76259375 6.93393993 -2.33504891 0 0 0 0.297091 0.001223 0.954848
6.02955961 7.11996984 -9.45417309 0 0 0 0.899366 -0.192618 -0.392477
-1.85074186 8.44368649 -6.49474621 0 0 0 0.000978 0.999999 0.000978
6.54937315 8.58862305 -1.96998668 0 0 0 0.000978 -0.999999 0.000978
1.21517777 8.58871078 -0.88455105 0 0 0 0.000978 -0.999999 0.000978
3.45270967 7.77435541 -8.30745888 0 0 0 -0.399807 0.001286 -0.916599
1.76165724 8.30764961 -3.99108410 0 0 0 0.000978 0.999999 0.000978
3.99921465 6.30555391 -1.58655655 0 0 0 0.294171 0.001221 0.955752
-0.08061817 6.44420624 -6.84546709 0 0 0 0.399807 0.001286 0.916599
3.32705164 8.58862114 -8.65023994 0 0 0 0.000978 -0.999999 0.000978
3.46101308 8.58867359 -1.32065368 0 0 0 0.000978 -0.999999 0.000978
3.54122066 4.35547066 -7.36266804 0 0 0 0.000978 -0.999999 0.000978
-2.57416081 8.58873463 -5.38796234 0 0 0 0.000978 -0.999999 0.000978
-2.75754571 8.44372559 -3.51722050 0 0 0 0.000978 0.999999 0.000978
5.80744791 8.10059738 -8.08861542 0 0 0 -0.836802 0.001352 0.547504
10.14276791 4.28416920 -1.45979118 0 0 0 0.000978 0.999999 0.000978
5.66552639 8.25151634 -8.18390179 0 0 0 0.836802 0.001352 -0.547504
8.16175175 8.30474758 -10.44692802 0 0 0 0.399807 0.001286 0.916599
4.29462337 4.28416967 -4.09678221 0 0 0 0.000978 0.999999 0.000978
2.18432522 4.35549736 -6.67090082 0 0 0 0.000978 -0.999999 0.000978
4.10598898 8.44363499 -1.39855790 0 0 0 0.000978 0.999999 0.000978
11.62183571 8.30742931 -8.79105568 0 0 0 0.000978 0.999999 0.000978
6.81870794 8.45053101 -9.08132648 0 0 0 0.000978 -0.999999 0.000978
12.70368481 5.22047234 -7.30136967 0 0 0 -0.999987 0.000981 0.004907
6.19209385 8.44353771 -10.26796150 0 0 0 0.000978 0.999999 0.000978
8.73749065 8.30755329 0.98040164 0 0 0 0.000978 0.999999 0.000978
9.51096153 5.79531670 -11.03223896 0 0 0 0.399807 0.001286 0.916599
3.50502777 4.28416920 1.01668739 0 0 0 0.000978 0.999999 0.000978
11.24692726 8.58846664 -5.16333294 0 0 0 0.000978 -0.999999 0.000978
0.41545820 8.30767441 -3.27888775 0 0 0 0.000978 0.999999 0.000978
-0.03254026 4.37471819 -0.45333344 0 0 0 -0.294171 0.001221 -0.955752
12.65889835 7.05379009 -7.37687969 0 0 0 0.008027 -0.184629 0.982776
2.19636393 5.83126068 -1.13764799 0 0 0 -0.294171 0.001221 -0.955752
9.05835629 7.68731594 -0.10325029 0 0 0 -0.999960 0.000985 0.008867
3.43329430 8.44364262 -1.65172815 0 0 0 0.000978 0.999999 0.000978
1.97758210 5.07489824 -0.96587759 0 0 0 0.294171 0.001221 0.955752
2.53317356 8.58867359 -3.38975048 0 0 0 0.000978 -0.999999 0.000978
7.86597919 8.45053959 -5.58108521 0 0 0 0.000978 -0.999999 0.000978
8.45322609 5.41693163 -10.57053661 0 0 0 0.399807 0.001286 0.916599
5.67550516 8.45056534 -8.36428547 0 0 0 0.000978 -0.999999 0.000978
6.68732452 4.81217241 -9.80489063 0 0 0 0.396706 0.001284 0.917945
-0.52989388 8.35554409 -6.54325581 0 0 0 0.000978 -0.999999 0.000978
0.93972015 4.90558767 -7.29086447 0 0 0 0.399807 0.001286 0.916599
6.65250206 8.30754948 -7.05301142 0 0 0 0.000978 0.999999 0.000978
2.34620571 8.44361019 -9.12451649 0 0 0 0.000978 0.999999 0.000978
1.59332514 8.45065403 -4.69419670 0 0 0 0.000978 -0.999999 0.000978
12.80296040 5.15273190 -7.45479870 0 0 0 0.999987 0.000981 -0.004907
9.03804970 7.37117958 1.67575586 0 0 0 0.999960 0.000985 -0.008867
12.54863930 4.35528898 -9.26676369 0 0 0 0.000978 -0.999999 0.000978
6.77982140 6.55363274 -10.04307652 0 0 0 0.349556 0.013982 -0.936811
1.46125400 4.28417015 -4.06748104 0 0 0 0.000978 0.999999 0.000978
6.25300217 7.53498077 -9.57346344 0 0 0 0.399807 0.001286 0.916599
-0.30205774 4.35554552 -5.50378704 0 0 0 0.000978 -0.999999 0.000978
8.86081696 8.44350624 -5.21366405 0 0 0 0.000978 0.999999 0.000978
-1.65305448 6.39110327 -6.22463846 0 0 0 0.000978 0.999999 0.000978
0.11671448 8.44365025 -8.13805389 0 0 0 0.000978 0.999999 0.000978
12.55048943 8.44341755 -2.99657774 0 0 0 0.000978 0.999999 0.000978
9.03394794 8.15128231 -2.85232449 0 0 0 0.008218 0.219533 0.975570
8.21611023 8.44356632 -1.99016571 0 0 0 0.000978 0.999999 0.000978
1.47403598 8.30764771 -4.83264971 0 0 0 0.000978 0.999999 0.000978
1.35513830 8.45064640 -6.15727043 0 0 0 0.000978 -0.999999 0.000978
12.50827980 8.45041847 -9.20954800 0 0 0 0.000978 -0.999999 0.000978
13.03924465 8.45041180 1.60371757 0 0 0 0.000978 -0.999999 0.000978
12.68548679 7.58583975 -1.26843166 0 0 0 0.008478 0.270069 0.962804
9.06500816 8.44348049 -11.30216122 0 0 0 0.000978 0.999999 0.000978
12.63512993 6.89171600 -8.32375336 0 0 0 -0.008027 0.184629 -0.982776
7.13613367 8.58855247 -7.66584969 0 0 0 0.000978 -0.999999 0.000978
9.80711842 8.06484032 -11.10372448 0 0 0 0.900361 0.183541 -0.394540
-1.02957082 4.45278931 -6.54435682 0 0 0 0.396706 0.001284 0.917945
1.13770485 4.28417063 -8.68554783 0 0 0 0.000978 0.999999 0.000978
9.12330818 4.28416967 -9.02518177 0 0 0 0.000978 0.999999 0.000978
0.40970021 8.10107422 -0.61554050 0 0 0 -0.931824 0.220658 0.288121
9.57699585 8.30752373 -1.06177914 0 0 0 0.000978 0.999999 0.000978
9.20671463 8.58850765 -7.95790005 0 0 0 0.000978 -0.999999 0.000978
8.01801205 8.58853054 -7.85358810 0 0 0 0.000978 -0.999999 0.000978
5.94914484 5.16581059 -2.28470922 0 0 0 0.928213 0.001270 -0.372047
-0.85501254 4.28417015 -5.69703484 0 0 0 0.000978 0.999999 0.000978
5.89703751 8.44359589 -3.19439197 0 0 0 0.000978 0.999999 0.000978
13.32155609 8.44339561 -1.15659642 0 0 0 0.000978 0.999999 0.000978
9.46314812 4.28416967 -5.59436226 0 0 0 0.000978 0.999999 0.000978
9.94321823 8.45046997 -9.90106678 0 0 0 0.000978 -0.999999 0.000978
-1.66752160 8.44368839 -5.83932495 0 0 0 0.000978 0.999999 0.000978
9.63689423 8.45047569 -11.21724606 0 0 0 0.000978 -0.999999 0.000978
7.71880627 5.38638401 -10.24995995 0 0 0 0.399807 0.001286 0.916599
12.61835289 7.63402796 -12.10514164 0 0 0 0.008027 0.184629 0.982776
8.87393570 4.68797731 -2.84443593 0 0 0 -0.999976 0.000983 0.006883
-1.69599795 5.43872881 -6.25510979 0 0 0 -0.390517 0.001280 -0.920595
3.36033106 8.44360161 -7.40216827 0 0 0 0.000978 0.999999 0.000978
8.73429298 8.58858395 0.89820480 0 0 0 0.000978 -0.999999 0.000978
12.84107399 4.28416967 -5.47283554 0 0 0 0.000978 0.999999 0.000978
0.44838905 8.58872795 0.55191326 0 0 0 0.000978 -0.999999 0.000978
12.70190239 7.33223248 -2.03562427 0 0 0 -0.999960 0.000985 0.008867
8.87663460 6.60470867 -2.41785669 0 0 0 -0.999976 0.000983 0.006883
-1.50463378 5.49680758 -6.68981171 0 0 0 -0.333691 -0.309749 0.890341
12.69816780 8.19031143 1.71036303 0 0 0 0.999960 0.000985 -0.008867
11.42414570 7.20876312 1.72011423 0 0 0 -0.985368 0.170436 0.001129
2.80036879 8.58863735 -7.57693005 0 0 0 0.000978 -0.999999 0.000978
12.60119629 8.44341087 -12.91361427 0 0 0 0.000978 0.999999 0.000978
5.62883520 8.44360352 -2.64163923 0 0 0 0.000978 0.999999 0.000978
12.83953476 8.44340801 -13.61191940 0 0 0 0.000978 0.999999 0.000978
10.39075470 4.28416967 -4.25221825 0 0 0 0.000978 0.999999 0.000978
10.47652340 8.58848190 -7.93754673 0 0 0 0.000978 -0.999999 0.000978
6.03170872 4.28416967 -4.11506462 0 0 0 0.000978 0.999999 0.000978
6.87319517 8.44352341 -10.74871349 0 0 0 0.000978 0.999999 0.000978
3.81794643 5.60670280 -1.53091037 0 0 0 0.294171 0.001221 0.955752
10.99680424 8.45044899 -7.12376595 0 0 0 0.000978 -0.999999 0.000978
2.85664630 4.35551119 -4.07051277 0 0 0 0.000978 -0.999999 0.000978
1.43741906 8.45066166 -4.03911400 0 0 0 0.000978 -0.999999 0.000978
9.85747623 4.35539675 0.03078735 0 0 0 0.000978 -0.999999 0.000978
8.28799915 8.45051003 -6.45962715 0 0 0 0.000978 -0.999999 0.000978
-0.85112101 4.28417015 -6.70879555 0 0 0 0.000978 0.999999 0.000978
10.26832294 8.45050621 -2.78869009 0 0 0 0.000978 -0.999999 0.000978
12.36623096 8.45043182 -2.61038470 0 0 0 0.000978 -0.999999 0.000978
-1.08365929 7.68638945 -2.13731265 0 0 0 0.394846 -0.259727 0.881271
-0.32615933 7.96555853 -0.35880476 0 0 0 0.912475 0.001291 -0.409130
0.69620109 5.84194756 -0.76326394 0 0 0 -0.302950 0.001227 -0.953006
11.32937717 8.44343567 -8.91837978 0 0 0 0.000978 0.999999 0.000978
5.07007647 5.39113665 -9.09377861 0 0 0 0.399807 0.001286 0.916599
4.94539690 4.35546207 -6.10885859 0 0 0 0.000978 -0.999999 0.000978
4.54931068 4.28416920 -1.79573441 0 0 0 0.000978 0.999999 0.000978
10.95248985 8.58850670 0.96648192 0 0 0 0.000978 -0.999999 0.000978
1.22730124 8.44367504 -1.77482021 0 0 0 0.000978 0.999999 0.000978
0.81594640 4.35553503 -4.81630850 0 0 0 0.000978 -0.999999 0.000978
5.81146717 6.78659821 -2.32456827 0 0 0 0.000978 0.999999 0.000978
6.58827877 8.45059395 -2.77351522 0 0 0 0.000978 -0.999999 0.000978
7.44683981 8.45054722 -5.98423004 0 0 0 0.000978 -0.999999 0.000978
12.69586182 8.15489769 -2.09553099 0 0 0 -0.008478 -0.270069 -0.962804
12.65761185 7.29954147 -3.10323143 0 0 0 0.999960 0.000985 -0.008867
4.46618080 4.28416967 -4.31918812 0 0 0 0.000978 0.999999 0.000978
6.67745209 4.28416920 -1.12032700 0 0 0 0.000978 0.999999 0.000978
10.94532394 6.93952990 -11.61939812 0 0 0 0.399807 0.001286 0.916599
3.28005099 8.45060825 -7.37171173 0 0 0 0.000978 -0.999999 0.000978
12.82417965 6.11621141 -2.96852660 0 0 0 0.999987 0.000981 -0.004907
11.17668343 8.45044518 -10.58394432 0 0 0 0.000978 -0.999999 0.000978
0.73561585 4.35555172 -2.33791137 0 0 0 0.000978 -0.999999 0.000978
6.14097309 8.44353867 -8.73713970 0 0 0 0.000978 0.999999 0.000978
11.90328598 8.58846188 -3.40548325 0 0 0 0.000978 -0.999999 0.000978
0.85249883 6.17129898 -0.81823969 0 0 0 0.302950 0.001227 0.953006
8.99760818 6.72308969 0.92068011 0 0 0 0.999976 0.000983 -0.006883
8.31637096 6.88356352 -4.31446123 0 0 0 -0.836802 0.001352 0.547504
12.67578316 7.49127817 -1.22301805 0 0 0 0.999960 0.000985 -0.008867
-1.41781592 8.44367886 -6.98446560 0 0 0 0.000978 0.999999 0.000978
8.98338890 6.87751436 -0.66571879 0 0 0 0.999960 0.000985 -0.008867
13.17461205 8.44339848 -11.02082443 0 0 0 0.000978 0.999999 0.000978
8.51613808 4.28416920 -0.80413628 0 0 0 0.000978 0.999999 0.000978
-1.21308827 4.35555506 -5.88484907 0 0 0 0.000978 -0.999999 0.000978
5.99803734 5.69745398 -2.31043291 0 0 0 0.953006 0.001227 -0.302950
12.22099686 7.65968657 1.73979950 0 0 0 0.000978 0.000978 -0.999999
8.99489021 4.77773094 0.49099383 0 0 0 0.999976 0.000983 -0.006883
4.44002581 8.58864689 -3.10274553 0 0 0 0.000978 -0.999999 0.000978
-0.89236760 8.58874035 -1.04566145 0 0 0 0.000978 -0.999999 0.000978
-1.04116631 8.44367218 -7.00030708 0 0 0 0.000978 0.999999 0.000978
11.23414421 8.58849621 -1.97560382 0 0 0 0.000978 -0.999999 0.000978
3.39982200 4.70373106 -8.47382355 0 0 0 -0.399807 0.001286 -0.916599
5.47112274 8.45061588 -1.98514664 0 0 0 0.000978 -0.999999 0.000978
10.44940853 8.45045948 -6.22535515 0 0 0 0.000978 -0.999999 0.000978
7.94320869 4.35537624 -7.76577187 0 0 0 0.000978 -0.999999 0.000978
-2.45371604 7.00073576 -5.27749491 0 0 0 -0.912475 0.001291 0.409130
2.32056737 7.93962431 -1.21565151 0 0 0 0.931824 0.220658 -0.288121
8.11916351 8.58853912 -6.47140932 0 0 0 0.000978 -0.999999 0.000978
-2.54763174 7.00952578 -5.45684195 0 0 0 -0.394846 0.259727 -0.881271
9.24401760 8.45052624 -3.66771984 0 0 0 0.000978 -0.999999 0.000978
4.67433977 8.45060539 -5.14717245 0 0 0 0.000978 -0.999999 0.000978
4.53731346 4.28416920 -1.66231537 0 0 0 0.000978 0.999999 0.000978
2.80124664 8.44365788 -0.66966343 0 0 0 0.000978 0.999999 0.000978
4.68827009 8.45059681 -6.13466549 0 0 0 0.000978 -0.999999 0.000978
13.07871437 8.58843040 -13.07885456 0 0 0 0.000978 -0.999999 0.000978
12.71681499 8.44340801 -9.42858601 0 0 0 0.000978 0.999999 0.000978
12.32358646 4.61169910 1.76071846 0 0 0 -0.006883 0.000983 -0.999976
0.50102675 8.45069885 -0.71738577 0 0 0 0.000978 -0.999999 0.000978
-1.98140514 8.58871841 -6.74421501 0 0 0 0.000978 -0.999999 0.000978
12.01778984 8.58845139 -9.16787243 0 0 0 0.000978 -0.999999 0.000978
7.59404516 8.30755997 -4.34586287 0 0 0 0.000978 0.999999 0.000978
4.60542393 4.35549831 -2.23639441 0 0 0 0.000978 -0.999999 0.000978
5.05234814 8.45060349 -4.50260019 0 0 0 0.000978 -0.999999 0.000978
9.00197411 6.91969490 1.54046559 0 0 0 0.999960 0.000985 -0.008867
8.62493324 8.44348907 -9.43324471 0 0 0 0.000978 0.999999 0.000978
8.80318069 8.58851528 -7.62064266 0 0 0 0.000978 -0.999999 0.000978
-1.25913811 8.30769730 -3.62259269 0 0 0 0.000978 0.999999 0.000978
9.05197430 4.28416920 -3.67260170 0 0 0 0.000978 0.999999 0.000978
12.39659309 8.58844376 -8.55461979 0 0 0 0.000978 -0.999999 0.000978
7.00727272 8.45059013 -2.45389438 0 0 0 0.000978 -0.999999 0.000978
9.04929352 6.91491461 -10.77437878 0 0 0 0.900361 -0.183541 -0.394540
5.39526320 4.35548592 -2.44018221 0 0 0 0.000978 -0.999999 0.000978
12.71125793 8.30740738 -9.56514263 0 0 0 0.000978 0.999999 0.000978
-1.07287598 4.36570215 -6.49165869 0 0 0 0.000978 -0.999999 0.000978
13.00458241 4.28417015 -13.21206188 0 0 0 0.000978 0.999999 0.000978
6.35512066 4.35540628 -9.72042561 0 0 0 0.000978 -0.999999 0.000978
5.26802778 7.05708790 -2.13462615 0 0 0 0.931824 0.220658 -0.288121
6.24576569 8.44359493 -2.54386234 0 0 0 0.000978 0.999999 0.000978
9.57472134 8.44347095 -6.06321192 0 0 0 0.000978 0.999999 0.000978
-0.00241601 6.19372177 -6.87960482 0 0 0 0.399807 0.001286 0.916599
-2.28063583 4.28417063 -5.85544395 0 0 0 0.000978 0.999999 0.000978
7.70400286 5.37988377 -2.82863760 0 0 0 -0.294171 0.001221 -0.955752
0.96144676 8.45065212 -6.13987064 0 0 0 0.000978 -0.999999 0.000978
-2.04267359 4.35557747 -4.45225048 0 0 0 0.000978 -0.999999 0.000978
8.29738903 8.44356251 -2.80520654 0 0 0 0.000978 0.999999 0.000978
8.89213467 6.46829176 0.05016696 0 0 0 -0.999976 0.000983 0.006883
-2.52747011 6.87886095 -5.76904488 0 0 0 0.399807 0.001286 0.916599
4.73563242 8.44356537 -9.98493862 0 0 0 0.000978 0.999999 0.000978
9.78916931 6.23912716 1.77672398 0 0 0 -0.006883 0.000983 -0.999976
-1.51543450 8.58871651 -5.74019480 0 0 0 0.000978 -0.999999 0.000978
10.27969456 5.57304478 1.77361929 0 0 0 -0.006883 0.000983 -0.999976
9.01413250 8.14872932 -2.16578078 0 0 0 -0.008218 -0.219533 -0.975570
10.80661392 8.28497028 1.67133498 0 0 0 -0.000978 0.000978 0.999999
11.56758213 8.30743122 -10.31338978 0 0 0 0.000978 0.999999 0.000978
6.11705399 8.44356346 -6.99774742 0 0 0 0.000978 0.999999 0.000978
2.63480115 6.15366411 -1.35625923 0 0 0 -0.302950 0.001227 -0.953006
8.20249557 8.30755997 -3.05311680 0 0 0 0.000978 0.999999 0.000978
3.83543348 8.58861732 -8.14167690 0 0 0 0.000978 -0.999999 0.000978
3.27523375 4.28416920 -1.79958844 0 0 0 0.000978 0.999999 0.000978
9.06021023 7.80195379 1.29433978 0 0 0 -0.008218 0.219533 -0.975570
7.08282375 8.30756569 -4.64714479 0 0 0 0.000978 0.999999 0.000978
10.41844559 8.14599419 1.70314479 0 0 0 -0.000978 0.000978 0.999999
3.70105863 4.76223564 -1.62894976 0 0 0 0.925729 0.001273 -0.378186
-0.88089836 7.53737211 -6.43372345 0 0 0 0.899366 -0.192618 -0.392477
9.42735481 4.28416920 -2.89082527 0 0 0 0.000978 0.999999 0.000978
5.13284779 4.35547876 -4.06663942 0 0 0 0.000978 -0.999999 0.000978
6.25089741 8.58859825 -5.98821211 0 0 0 0.000978 -0.999999 0.000978
8.41865921 4.28416920 -3.59910583 0 0 0 0.000978 0.999999 0.000978
6.15092659 4.28416920 -2.20105553 0 0 0 0.000978 0.999999 0.000978
12.69323444 7.28441429 -4.30351114 0 0 0 -0.999960 0.000985 0.008867
12.77419186 8.30740738 -3.21288300 0 0 0 0.000978 0.999999 0.000978
1.60335290 8.58866024 -6.98326015 0 0 0 0.000978 -0.999999 0.000978
9.55918217 5.97855234 -11.16239738 0 0 0 -0.399807 0.001286 -0.916599
4.05717325 8.58865738 -2.39370012 0 0 0 0.000978 -0.999999 0.000978
-2.29813933 6.61197233 -4.50364208 0 0 0 -0.912475 0.001291 0.409130
13.65597534 8.44338608 -0.94081688 0 0 0 0.000978 0.999999 0.000978
0.93668270 4.28416967 -1.40400505 0 0 0 0.000978 0.999999 0.000978
11.74272156 8.45045567 -0.21348476 0 0 0 0.000978 -0.999999 0.000978
0.93447542 4.35555172 -1.91739750 0 0 0 0.000978 -0.999999 0.000978
10.86336136 4.28416920 -2.95722198 0 0 0 0.000978 0.999999 0.000978
11.42980766 6.94317722 1.72899163 0 0 0 0.985368 -0.170436 -0.001129
6.46930552 8.58858967 -6.69468212 0 0 0 0.000978 -0.999999 0.000978
10.69395638 4.35532427 -4.99526644 0 0 0 0.000978 -0.999999 0.000978
12.67509556 8.02936459 -1.02814043 0 0 0 0.999960 0.000985 -0.008867
3.77177477 4.28417015 -8.78011322 0 0 0 0.000978 0.999999 0.000978
12.42408180 8.45042038 -11.08116627 0 0 0 0.000978 -0.999999 0.000978
4.69484329 8.00429344 -1.96020401 0 0 0 0.931824 -0.220658 -0.288121
12.68806934 4.74957180 -10.60333443 0 0 0 -0.999987 0.000981 0.004907
12.70090580 4.58567047 -7.88800430 0 0 0 -0.999987 0.000981 0.004907
8.97173119 8.44354630 -2.33929944 0 0 0 0.000978 0.999999 0.000978
12.81482315 4.54663992 -4.94430208 0 0 0 0.999987 0.000981 -0.004907
11.14733982 4.28416967 -6.94031525 0 0 0 0.000978 0.999999 0.000978
11.75773144 8.45045567 0.61256385 0 0 0 0.000978 -0.999999 0.000978
6.87289572 8.45059013 -2.72813177 0 0 0 0.000978 -0.999999 0.000978
-0.27009419 7.02358675 -0.47832578 0 0 0 -0.912475 0.001291 0.409130
-0.53577244 4.97026157 -0.83072400 0 0 0 0.912475 0.001291 -0.409130
12.69199181 7.67645264 -8.19548702 0 0 0 -0.999960 0.000985 0.008867
-2.35301971 5.13310957 -4.86941957 0 0 0 0.912475 0.001291 -0.409130
12.73725796 4.64504433 -0.19899631 0 0 0 -0.999987 0.000981 0.004907
0.05637813 8.44367886 -3.74863982 0 0 0 0.000978 0.999999 0.000978
10.01163673 8.44346142 -9.17594528 0 0 0 0.000978 0.999999 0.000978
-0.49688554 4.28416920 0.70714808 0 0 0 0.000978 0.999999 0.000978
-1.65073335 4.57319450 -6.26613569 0 0 0 -0.396706 0.001284 -0.917945
-0.12381184 4.35555983 -2.96534348 0 0 0 0.000978 -0.999999 0.000978
12.68464756 8.24400902 -1.89311206 0 0 0 -0.001169 -0.975828 -0.218539
12.77987576 5.62367868 -12.33856583 0 0 0 0.999987 0.000981 -0.004907
-0.19441515 8.58871269 -3.54091501 0 0 0 0.000978 -0.999999 0.000978
8.74332523 8.58858299 -1.72607446 0 0 0 0.000978 -0.999999 0.000978
-1.16159546 6.19323492 -2.22148609 0 0 0 0.912475 0.001291 -0.409130
8.88184071 5.43064880 -1.58720613 0 0 0 -0.999976 0.000983 0.006883
1.54633498 4.38897562 -0.75141472 0 0 0 -0.925729 0.001273 0.378186
-1.98059714 6.17015266 -6.05684853 0 0 0 -0.917945 0.001284 0.396706
9.90661907 4.35533905 -10.26807785 0 0 0 0.000978 -0.999999 0.000978
