//X Y Z R G B Nx Ny Nz
704
-3.51835203 6.93058681 5.99017000 0 0 0 -0.553762 0.001354 -0.832674
-3.27886271 11.45840263 5.62428999 0 0 0 0.000978 -0.999999 0.000978
-1.02418959 6.91168308 10.54954052 0 0 0 0.033789 -0.468986 0.882559
-0.38787127 9.25826740 5.95469570 0 0 0 -0.977134 -0.212622 0.001162
-3.47912455 6.12365627 4.64134836 0 0 0 0.000978 0.999999 0.000978
-4.54606199 9.72063923 5.76834583 0 0 0 -0.999999 0.000978 0.000978
-3.13846040 11.45840263 9.57778263 0 0 0 0.000978 -0.999999 0.000978
-5.51040792 9.65623665 5.77802944 0 0 0 0.000978 0.000978 -0.999999
0.05051960 9.17311192 7.10614777 0 0 0 -0.999999 0.000978 0.000978
-5.20699501 9.63030338 9.00930309 0 0 0 0.000978 -0.999999 0.000978
-5.47076082 8.68939972 5.96214437 0 0 0 -0.977134 0.212622 0.001162
-0.01687765 9.63585854 10.67333317 0 0 0 0.999999 0.000978 0.000978
-4.52728701 9.98893166 10.51006031 0 0 0 0.381263 0.924466 0.001275
-1.99904299 6.12361908 4.14671469 0 0 0 0.000978 0.999999 0.000978
-1.89517140 6.45737600 6.00515699 0 0 0 0.000978 0.000978 0.999999
0.01522428 9.60442162 6.47838306 0 0 0 0.999999 0.000978 0.000978
-2.16707730 11.46491623 9.88612938 0 0 0 0.000978 0.999999 0.000978
-5.53657293 7.97183561 6.00515413 0 0 0 0.000978 0.000978 0.999999
-0.45032501 6.10574293 7.48795319 0 0 0 -0.055862 0.998144 -0.024242
-3.03243685 9.09220314 5.94390917 0 0 0 0.977134 0.212622 0.001162
-5.44221783 9.63030243 10.79182434 0 0 0 0.000978 -0.999999 0.000978
-4.97576094 9.74482918 5.97234201 0 0 0 0.000978 0.000978 -0.999999
-4.05570364 11.45840263 10.29434776 0 0 0 0.000978 -0.999999 0.000978
-0.99056840 12.29652405 5.86877489 0 0 0 -0.262509 0.964929 0.001199
-0.23844290 6.90041256 7.95802784 0 0 0 -0.006122 0.292617 -0.956210
-0.78717166 8.59353256 10.68353748 0 0 0 0.001022 -0.048051 -0.998844
-0.22665544 6.76986980 8.47827911 0 0 0 0.000978 -0.999999 0.000978
0.08512092 12.56321239 7.47378206 0 0 0 0.262509 0.964929 0.001199
-4.24596071 6.12367582 8.09173012 0 0 0 0.000978 0.999999 0.000978
-5.29485941 6.10574293 5.75054455 0 0 0 0.083070 0.988649 -0.125190
-0.51372159 10.08173180 9.93665504 0 0 0 0.000978 -0.999999 0.000978
-5.50969505 6.12370777 7.11484098 0 0 0 0.000978 0.999999 0.000978
-2.41687107 6.12362957 7.67258549 0 0 0 0.000978 0.999999 0.000978
-5.50645018 8.82345963 10.77996540 0 0 0 0.977134 0.212622 0.001162
-4.71752405 10.08173180 10.49647141 0 0 0 0.000978 -0.999999 0.000978
-0.90582472 11.80007172 5.39264441 0 0 0 0.000978 0.000978 -0.999999
-4.71273279 11.21816921 6.41154242 0 0 0 -0.406019 0.913864 0.001289
-1.37050223 6.76593494 10.44074249 0 0 0 -0.105790 -0.386064 -0.916386
-0.19393077 8.85379887 5.93705082 0 0 0 0.000978 0.000978 0.999999
-5.56743717 9.58632565 10.73088360 0 0 0 -0.999999 0.000978 0.000978
-3.46511030 6.12365627 10.73393345 0 0 0 0.000978 0.999999 0.000978
-1.25316489 6.39736414 8.00519085 0 0 0 0.980932 -0.194346 0.001150
-3.91638947 10.08173180 5.89439487 0 0 0 0.000978 -0.999999 0.000978
-2.18030882 11.74526882 5.39264631 0 0 0 0.000978 0.000978 -0.999999
-2.98981285 11.75416470 8.05217838 0 0 0 -0.262509 0.964929 0.001199
-4.97919130 9.63030338 8.72487736 0 0 0 0.000978 -0.999999 0.000978
0.03756187 9.06605721 6.23930359 0 0 0 0.001162 -0.212622 -0.977134
-1.03394032 8.80037022 5.93705177 0 0 0 0.000978 0.000978 0.999999
0.06305005 9.30282879 5.93705034 0 0 0 0.000978 0.000978 0.999999
-1.81271172 6.10574293 7.82181931 0 0 0 -0.025778 0.999156 -0.031965
0.08074360 6.14146662 9.29709911 0 0 0 0.999999 0.000978 0.000978
-0.71945375 9.95463657 10.78555775 0 0 0 -0.977134 -0.212622 0.001162
-1.75856280 12.08818626 9.16270638 0 0 0 -0.262509 0.964929 0.001199
-2.01935387 11.46491623 6.53925467 0 0 0 0.000978 0.999999 0.000978
-4.81339264 10.08173180 8.97441673 0 0 0 0.000978 -0.999999 0.000978
-4.58012581 6.10574293 5.76087236 0 0 0 0.065312 0.991131 -0.115727
-1.20348251 8.43995190 10.74286366 0 0 0 -0.001022 0.048051 0.998844
0.15408850 6.10574293 9.03521538 0 0 0 -0.059285 0.997062 0.048506
-2.77722311 10.08173180 7.06750917 0 0 0 0.000978 -0.999999 0.000978
-2.36149955 11.92461395 6.80414820 0 0 0 -0.262509 0.964929 0.001199
-4.37592840 9.62419033 5.97234488 0 0 0 0.000978 0.000978 -0.999999
-5.37626266 9.92091465 10.79076958 0 0 0 0.000978 0.000978 -0.999999
-5.26402092 6.12370157 4.05826950 0 0 0 0.000978 0.999999 0.000978
-5.38148069 10.08173180 7.29544115 0 0 0 0.000978 -0.999999 0.000978
-3.35668206 6.82214355 10.42646122 0 0 0 -0.997374 -0.035353 0.063206
-1.83028221 10.08173180 6.03658819 0 0 0 0.000978 -0.999999 0.000978
-3.57735014 8.51250172 6.00515604 0 0 0 0.000978 0.000978 -0.999999
-1.26726627 6.10574293 6.31894302 0 0 0 -0.028743 0.997475 -0.064937
-0.01925592 7.36445999 8.33065605 0 0 0 -0.999999 0.000978 0.000978
0.08074458 6.84736729 10.21478653 0 0 0 0.999999 0.000978 0.000978
-2.01921558 11.45840263 7.88022137 0 0 0 0.000978 -0.999999 0.000978
-0.32246575 7.12386990 7.68782759 0 0 0 0.000978 -0.999999 0.000978
-0.01925391 8.22813892 9.94796276 0 0 0 -0.999999 0.000978 0.000978
-2.16856647 6.12362337 4.87038612 0 0 0 0.000978 0.999999 0.000978
-2.88838816 8.27304935 6.00548649 0 0 0 0.000978 0.000978 -0.999999
-1.90241981 10.08173180 6.41523695 0 0 0 0.000978 -0.999999 0.000978
-0.77145284 6.12358809 4.57258892 0 0 0 0.000978 0.999999 0.000978
0.01289720 8.77386665 8.75798225 0 0 0 0.999999 0.000978 0.000978
-0.22457169 7.04903936 8.08779144 0 0 0 0.000978 0.999999 0.000978
-2.23142147 11.95990086 6.17076826 0 0 0 -0.262509 0.964929 0.001199
-0.38469076 11.45840263 9.15341282 0 0 0 0.000978 -0.999999 0.000978
0.03347262 8.65584564 7.01941395 0 0 0 0.001162 0.212622 -0.977134
0.02591483 8.95120430 8.95660686 0 0 0 0.001162 -0.212622 0.977134
-0.16114591 6.90498018 7.93124628 0 0 0 -0.003679 0.295548 -0.955321
-3.62024117 10.08173180 6.74734402 0 0 0 0.000978 -0.999999 0.000978
-5.50503540 6.12370729 6.28094006 0 0 0 0.000978 0.999999 0.000978
0.08074579 8.41232300 9.09459972 0 0 0 0.999999 0.000978 0.000978
-2.03395796 6.65251827 10.45319557 0 0 0 0.999999 0.000978 0.000978
-0.01925552 7.02811146 9.66947556 0 0 0 -0.999999 0.000978 0.000978
-2.44104052 11.46491623 6.98065948 0 0 0 0.000978 0.999999 0.000978
-1.65246606 6.72350836 10.62344551 0 0 0 0.001168 0.220763 -0.975327
-3.24015117 6.12365007 8.88474178 0 0 0 0.000978 0.999999 0.000978
-3.52817988 6.12365770 5.29989576 0 0 0 0.000978 0.999999 0.000978
-4.91406250 10.14878654 7.81914806 0 0 0 0.381263 0.924466 0.001275
-4.91750860 6.12369251 8.18725967 0 0 0 0.000978 0.999999 0.000978
-2.55238271 6.10574293 4.47057819 0 0 0 0.054456 0.994649 -0.087796
-4.58991814 9.63030338 10.16071701 0 0 0 0.000978 -0.999999 0.000978
-1.24490309 11.58165741 5.39264488 0 0 0 0.000978 0.000978 -0.999999
-5.17454004 10.08173180 10.28452873 0 0 0 0.000978 -0.999999 0.000978
-0.00088906 8.60583019 5.90571785 0 0 0 0.000978 0.999999 0.000978
-0.06703283 6.12357044 9.99067497 0 0 0 0.000978 0.999999 0.000978
-3.54871774 9.50791359 10.75648308 0 0 0 -0.977134 -0.212622 0.001162
-2.77866197 8.23756027 6.00515652 0 0 0 0.000978 0.000978 0.999999
-0.70537204 8.52715778 6.00515795 0 0 0 0.000978 0.000978 0.999999
-1.57855356 7.94751215 6.00515747 0 0 0 0.000978 0.000978 0.999999
-3.63653612 6.10574293 8.25974464 0 0 0 0.015496 0.998982 -0.042356
-0.01925516 7.89409208 8.53165627 0 0 0 -0.999999 0.000978 0.000978
-1.58496165 6.63179111 9.08665752 0 0 0 0.000978 0.999999 0.000978
-2.06498384 10.08173180 5.01548195 0 0 0 0.000978 -0.999999 0.000978
-2.15084481 10.08173180 8.23550987 0 0 0 0.000978 -0.999999 0.000978
-0.24042444 7.61982727 10.21481991 0 0 0 -0.120085 0.016525 -0.992626
-4.95441341 10.08173180 5.14130116 0 0 0 0.000978 -0.999999 0.000978
-2.52089047 6.37675762 7.92930079 0 0 0 0.000978 -0.999999 0.000978
-3.69793463 6.10574293 10.69480515 0 0 0 0.026140 0.998550 0.047052
-5.35816288 9.51136780 5.93799782 0 0 0 -0.977134 -0.212622 0.001162
0.05052300 9.96306801 9.74189472 0 0 0 -0.999999 0.000978 0.000978
-0.01683383 6.97484493 5.10432339 0 0 0 -0.999999 0.000978 0.000978
-4.12497568 6.10574293 7.15228415 0 0 0 0.035779 0.996391 -0.076979
0.08316767 8.70369625 5.44898510 0 0 0 0.999999 0.000978 0.000978
-1.00306296 6.12359381 6.70853519 0 0 0 0.000978 0.999999 0.000978
-1.61512303 6.12360954 7.36959934 0 0 0 0.000978 0.999999 0.000978
-0.76954126 6.12358809 8.65410328 0 0 0 0.000978 0.999999 0.000978
0.08074594 8.51738644 9.13435745 0 0 0 0.999999 0.000978 0.000978
-4.24650574 11.42558098 9.35915470 0 0 0 -0.406019 0.913864 0.001289
-2.59554458 11.86112881 10.62707233 0 0 0 -0.262509 0.964929 0.001199
-4.46247673 9.96214867 9.07668591 0 0 0 0.381263 0.924466 0.001275
-3.67388082 6.12366152 8.98284912 0 0 0 0.000978 0.999999 0.000978
-1.42355466 11.92847061 5.39264536 0 0 0 0.000978 0.000978 -0.999999
0.03754600 9.28861713 7.61222982 0 0 0 0.001162 0.212622 0.977134
-1.47863150 6.10574293 6.96001482 0 0 0 -0.028345 0.998380 -0.049342
-2.83527160 9.97780323 8.37365341 0 0 0 -0.999633 0.001003 0.027071
0.10356236 12.28575420 5.39264250 0 0 0 0.000978 0.000978 -0.999999
-0.01925630 6.93250942 8.55835629 0 0 0 -0.999999 0.000978 0.000978
-3.76850533 6.10574293 4.59499407 0 0 0 0.054565 0.994428 -0.090200
-4.44359589 6.12368059 5.82296276 0 0 0 0.000978 0.999999 0.000978
-5.67512894 9.63030243 8.50035763 0 0 0 0.000978 -0.999999 0.000978
-4.16006899 9.70603085 10.77919960 0 0 0 0.977134 0.212622 0.001162
-5.14726782 10.08173180 6.18921518 0 0 0 0.000978 -0.999999 0.000978
-4.04586029 8.78680611 5.93704796 0 0 0 0.000978 0.000978 0.999999
-4.12853765 8.78047752 5.93704796 0 0 0 0.000978 0.000978 0.999999
0.01749120 8.93924046 9.22532272 0 0 0 0.001162 -0.212622 0.977134
-4.61057186 6.12368488 4.93484116 0 0 0 0.000978 0.999999 0.000978
-3.82036638 7.31238937 10.77777576 0 0 0 0.000978 -0.999999 0.000978
-3.49530554 6.97603035 10.75073719 0 0 0 -0.999999 0.000978 0.000978
-1.88833940 10.08173180 8.22020531 0 0 0 0.000978 -0.999999 0.000978
-1.49197865 6.10574293 6.16919947 0 0 0 -0.022349 0.997204 -0.071305
-5.08229208 9.89170361 8.98533058 0 0 0 0.000978 0.999999 0.000978
-5.62154388 6.10574293 8.33944130 0 0 0 0.064776 0.995795 -0.064776
-3.46421719 9.52975082 10.79077244 0 0 0 0.000978 0.000978 -0.999999
-2.98370671 6.12364388 5.59381819 0 0 0 0.000978 0.999999 0.000978
-1.59110928 6.10574293 10.14162636 0 0 0 -0.009461 0.997618 0.068330
-3.52951312 7.94768620 10.81575680 0 0 0 0.000978 0.000978 0.999999
-2.16574001 11.71938419 5.39264631 0 0 0 0.000978 0.000978 -0.999999
-2.81794596 6.50531769 8.32532883 0 0 0 -0.999999 0.000978 0.000978
-1.12715077 11.45840263 6.28688574 0 0 0 0.000978 -0.999999 0.000978
-4.99890137 10.18537903 5.79759502 0 0 0 0.003789 0.935854 -0.352366
-2.03238821 8.13246727 6.00515699 0 0 0 0.000978 0.000978 0.999999
-0.40478000 6.55494976 10.63038921 0 0 0 0.999999 0.000978 0.000978
-5.48138523 10.88476753 4.76441097 0 0 0 -0.420274 0.907321 0.011783
-4.97459698 11.10168362 8.12473488 0 0 0 -0.406019 0.913864 0.001289
-4.39494658 9.87270832 9.28256226 0 0 0 0.000978 -0.999999 0.000978
-1.71627080 6.83677816 10.53316784 0 0 0 0.026504 -0.604021 0.796527
-0.33472562 7.75734425 10.29780006 0 0 0 -0.683970 0.463227 -0.563565
-4.61407328 10.02479839 10.52912331 0 0 0 0.381263 0.924466 0.001275
-5.52596521 10.85640335 6.93706846 0 0 0 -0.406019 0.913864 0.001289
-0.17436601 6.55738783 8.61871910 0 0 0 -0.003629 -0.274560 0.961563
-0.01683376 7.83070183 4.16050816 0 0 0 -0.999999 0.000978 0.000978
0.08316662 8.25927162 4.24612999 0 0 0 0.999999 0.000978 0.000978
-0.14545801 7.79195356 10.40983009 0 0 0 -0.967781 0.001193 -0.251790
-3.93825006 7.37422419 5.24624300 0 0 0 0.000978 0.999999 0.000978
-3.13019419 9.91331673 5.93704891 0 0 0 0.000978 0.000978 0.999999
0.02661689 8.77115536 8.44770145 0 0 0 0.001162 0.212622 0.977134
-3.89429498 8.94023895 5.93704844 0 0 0 0.000978 0.000978 0.999999
0.14210272 11.45840263 8.89664936 0 0 0 0.000978 -0.999999 0.000978
0.05052005 9.92539501 7.74711084 0 0 0 -0.999999 0.000978 0.000978
-0.01683266 8.39179039 5.28656912 0 0 0 -0.999999 0.000978 0.000978
-0.48472309 6.10574293 6.00307560 0 0 0 -0.044286 0.996984 -0.063729
0.08316571 6.48285675 4.95615196 0 0 0 0.999999 0.000978 0.000978
-2.52280831 11.45840263 9.25235176 0 0 0 0.000978 -0.999999 0.000978
-1.53142738 10.08173180 7.47999096 0 0 0 0.000978 -0.999999 0.000978
-1.93896556 6.65193701 8.18878365 0 0 0 0.000978 -0.999999 0.000978
-3.70310116 8.91764069 10.77720833 0 0 0 -0.977134 0.212622 0.001162
0.03477548 9.90643024 10.09355736 0 0 0 0.001162 0.212622 -0.977134
-3.41089511 6.69353247 10.55706978 0 0 0 0.999999 0.000978 0.000978
-1.68064940 10.10577583 10.72263908 0 0 0 0.000978 -0.999999 0.000978
-2.79604506 6.28182554 10.18478203 0 0 0 0.999999 0.000978 0.000978
-0.34127137 6.44845057 10.64719486 0 0 0 0.000978 0.000978 -0.999999
-4.37870646 7.43044901 10.81575584 0 0 0 0.000978 0.000978 0.999999
-5.31368494 9.87270641 6.96285439 0 0 0 0.000978 -0.999999 0.000978
-2.29518819 6.65193701 8.22084427 0 0 0 0.000978 -0.999999 0.000978
-2.60414004 11.46491623 6.05097675 0 0 0 0.000978 0.999999 0.000978
-3.29013252 6.12674665 6.00515604 0 0 0 0.000978 0.000978 0.999999
0.08312096 8.69859791 8.23806381 0 0 0 -0.999999 0.000978 0.000978
-5.08158588 10.08173180 6.57096815 0 0 0 0.000978 -0.999999 0.000978
-3.79227352 9.79755688 5.95311117 0 0 0 -0.977134 -0.212622 0.001162
-0.09505343 11.45840263 9.24596119 0 0 0 0.000978 -0.999999 0.000978
-3.41847634 11.63787460 8.05724430 0 0 0 -0.262509 0.964929 0.001199
-3.91860604 11.46491623 7.18851948 0 0 0 0.000978 0.999999 0.000978
0.08316635 6.66776323 5.79821110 0 0 0 0.999999 0.000978 0.000978
-4.90127945 10.14350224 8.37176514 0 0 0 0.381263 0.924466 0.001275
-5.08759165 7.76347208 6.00515461 0 0 0 0.000978 0.000978 0.999999
-2.78063798 11.81090832 7.12091446 0 0 0 -0.262509 0.964929 0.001199
-4.85916233 9.87270832 9.04003906 0 0 0 0.000978 -0.999999 0.000978
-3.92273545 8.22653484 6.00537062 0 0 0 0.001047 0.072214 0.997389
-0.34165925 6.76986885 9.90831470 0 0 0 0.000978 -0.999999 0.000978
-5.03872490 9.87270737 9.79513359 0 0 0 0.000978 -0.999999 0.000978
-2.30378509 6.10562468 5.90826941 0 0 0 0.000978 -0.999999 0.000978
-4.66053820 6.12368631 4.10427856 0 0 0 0.000978 0.999999 0.000978
0.08316534 6.18698597 4.70857382 0 0 0 0.999999 0.000978 0.000978
-0.01925750 6.21223640 8.01546001 0 0 0 -0.999999 0.000978 0.000978
-4.48754454 8.25038815 5.96537733 0 0 0 0.999999 0.000978 0.000978
-5.60193539 6.10574293 7.46753311 0 0 0 0.070741 0.993741 -0.086461
-3.88373852 6.73739767 10.81575680 0 0 0 0.000978 0.000978 0.999999
-0.77305406 11.15806389 4.35092545 0 0 0 0.001219 0.956644 -0.291258
-2.68644524 6.10574293 6.97658300 0 0 0 0.003115 0.997987 -0.063348
-4.46397829 10.08173180 10.52706242 0 0 0 0.000978 -0.999999 0.000978
-4.30572796 9.87270832 9.01677132 0 0 0 0.000978 -0.999999 0.000978
-4.44787931 6.12368107 10.07729435 0 0 0 0.000978 0.999999 0.000978
-1.46716022 7.01930046 6.00515747 0 0 0 0.000978 0.000978 0.999999
0.08869489 9.35240936 10.75547886 0 0 0 0.000978 0.000978 0.999999
-3.46438169 6.10574293 5.30558777 0 0 0 0.067339 0.991821 -0.108427
-3.40329695 11.64199257 7.70077896 0 0 0 -0.262509 0.964929 0.001199
0.05052369 9.06740284 10.47737885 0 0 0 -0.999999 0.000978 0.000978
-0.55032110 11.46491623 7.99687910 0 0 0 0.000978 0.999999 0.000978
-3.43714499 6.14272261 6.00515604 0 0 0 0.000978 0.000978 0.999999
-3.49652052 8.14538956 10.75864410 0 0 0 -0.999999 0.000978 0.000978
-1.38134205 6.65367126 10.59222794 0 0 0 -0.999999 0.000978 0.000978
-0.01687791 9.56879425 10.63901901 0 0 0 0.999999 0.000978 0.000978
-4.95228958 10.16457844 10.74100018 0 0 0 0.381263 0.924466 0.001275
0.01289786 9.90107155 8.18486214 0 0 0 0.999999 0.000978 0.000978
-0.76199228 6.72767591 10.62438393 0 0 0 0.001168 0.220763 -0.975327
0.01522567 9.08918476 7.66386080 0 0 0 0.999999 0.000978 0.000978
0.08074631 8.32482433 10.12478924 0 0 0 0.999999 0.000978 0.000978
-1.15620482 6.78542042 10.44500065 0 0 0 -0.016563 -0.350377 -0.936462
-3.67824507 11.56740761 9.74956417 0 0 0 -0.262509 0.964929 0.001199
-5.03740883 9.70073891 5.96115828 0 0 0 -0.977134 -0.212622 0.001162
-3.70804834 11.45840263 8.04411793 0 0 0 0.000978 -0.999999 0.000978
-3.85182595 9.90187740 5.97009420 0 0 0 -0.977134 0.212622 0.001162
-1.08095884 12.27200222 5.50405312 0 0 0 -0.262509 0.964929 0.001199
0.04818930 9.53122902 6.27908802 0 0 0 -0.999999 0.000978 0.000978
0.08312144 10.09969044 7.05237532 0 0 0 -0.999999 0.000978 0.000978
-4.08350277 11.46491623 10.13663101 0 0 0 0.000978 0.999999 0.000978
-2.78223395 6.12363911 5.05170822 0 0 0 0.000978 0.999999 0.000978
-4.74306107 10.07810974 9.37082005 0 0 0 0.381263 0.924466 0.001275
-1.30280101 6.64034033 10.71413612 0 0 0 0.000978 0.000978 -0.999999
-4.60603905 9.87270737 6.71705580 0 0 0 0.000978 -0.999999 0.000978
-0.01925627 6.67282200 9.13645363 0 0 0 -0.999999 0.000978 0.000978
-4.57937384 8.63877392 10.78038406 0 0 0 0.276796 0.960928 0.001209
-1.51446676 6.10574293 7.55779028 0 0 0 -0.030145 0.998957 -0.034303
-4.07342672 10.08173180 9.43428612 0 0 0 0.000978 -0.999999 0.000978
-1.49354362 6.63641119 10.37285900 0 0 0 0.079991 -0.975895 -0.203055
-1.19110489 6.12359905 7.04500103 0 0 0 0.000978 0.999999 0.000978
-1.09130096 6.10574293 7.12233305 0 0 0 -0.038926 0.998399 -0.041030
-4.86227989 6.12369108 8.07745075 0 0 0 0.000978 0.999999 0.000978
-3.08755803 6.65618610 10.19073582 0 0 0 0.000978 -0.999999 0.000978
-5.56743383 9.43234921 10.77778149 0 0 0 -0.999999 0.000978 0.000978
-4.56074381 6.24062824 6.01314306 0 0 0 0.000978 0.000978 0.999999
0.08473611 11.46491623 7.98542023 0 0 0 0.000978 0.999999 0.000978
-3.71110463 11.45840263 10.07002354 0 0 0 0.000978 -0.999999 0.000978
-4.80587530 9.63030243 6.66980028 0 0 0 0.000978 -0.999999 0.000978
-2.12847543 6.10574293 9.37678337 0 0 0 -0.025269 0.999639 0.009097
-0.82784128 6.10574293 7.27708721 0 0 0 -0.045240 0.998444 -0.032615
-1.59348035 11.45840263 10.15207958 0 0 0 0.000978 -0.999999 0.000978
-5.56115627 10.08646584 10.72204208 0 0 0 0.000978 0.000978 0.999999
-5.06885290 10.08173180 8.39289284 0 0 0 0.000978 -0.999999 0.000978
-2.19498587 11.96978474 5.81139135 0 0 0 -0.262509 0.964929 0.001199
0.08316856 10.10474491 5.17279339 0 0 0 0.999999 0.000978 0.000978
-5.56010866 10.08173180 5.11514091 0 0 0 0.000978 -0.999999 0.000978
-0.01683186 9.62591076 5.07608509 0 0 0 -0.999999 0.000978 0.000978
-2.63544655 11.46491623 8.30547142 0 0 0 0.000978 0.999999 0.000978
-2.17640829 6.10574293 4.03261709 0 0 0 0.042379 0.996445 -0.072805
-3.53607702 11.46491623 9.83914852 0 0 0 0.000978 0.999999 0.000978
-1.20041144 10.08173180 9.82088566 0 0 0 0.000978 -0.999999 0.000978
-3.36548448 10.08173180 10.20159531 0 0 0 0.000978 -0.999999 0.000978
-1.25004864 6.10574293 7.56831980 0 0 0 -0.038536 0.998801 -0.030204
-4.61307907 9.63030243 6.17753983 0 0 0 0.000978 -0.999999 0.000978
-1.01888895 6.12359428 6.44315290 0 0 0 0.000978 0.999999 0.000978
0.08119977 9.62790203 5.95118713 0 0 0 0.999999 0.000978 -0.000978
-0.70517886 12.37394714 6.34830093 0 0 0 -0.262509 0.964929 0.001199
-4.25752211 9.87270832 7.97159767 0 0 0 0.000978 -0.999999 0.000978
-3.95479608 6.10574293 4.18696833 0 0 0 0.040283 0.996194 -0.077300
-5.43710995 10.08173180 10.03900146 0 0 0 0.000978 -0.999999 0.000978
-2.79471111 6.65054798 8.91035652 0 0 0 0.999999 0.000978 0.000978
-4.73157358 6.12368822 10.57596684 0 0 0 0.000978 0.999999 0.000978
0.01561108 11.45840263 6.89438009 0 0 0 0.000978 -0.999999 0.000978
-4.50882149 8.60576153 10.77761078 0 0 0 0.000978 0.999999 0.000978
0.14248657 11.45840263 8.42115974 0 0 0 0.000978 -0.999999 0.000978
0.04511029 8.82350063 8.25550270 0 0 0 0.001162 0.212622 0.977134
-3.87165308 6.10574293 8.99787426 0 0 0 0.017286 0.999527 -0.025420
-1.59737957 6.12360907 4.69939804 0 0 0 0.000978 0.999999 0.000978
-0.36051100 6.46787024 8.77649117 0 0 0 -0.999999 0.000978 0.000978
-4.11316442 8.81386471 5.94373798 0 0 0 0.977134 -0.212622 0.001162
-1.04386568 6.12359524 8.00437927 0 0 0 0.000978 0.999999 0.000978
-3.44188309 11.63152599 8.49372864 0 0 0 -0.262509 0.964929 0.001199
-0.86754704 11.46491623 8.71359825 0 0 0 0.000978 0.999999 0.000978
-2.44052792 10.08173180 9.17036629 0 0 0 0.000978 -0.999999 0.000978
-2.51935315 7.33080769 6.00515652 0 0 0 0.000978 0.000978 0.999999
-4.00171661 11.47965240 8.65251446 0 0 0 -0.262509 0.964929 0.001199
-5.60602283 9.87270737 9.92283154 0 0 0 0.000978 -0.999999 0.000978
-3.41175175 11.63970280 9.69133186 0 0 0 -0.262509 0.964929 0.001199
-2.17357492 11.97560215 10.47766495 0 0 0 -0.262509 0.964929 0.001199
-5.20100546 6.12369967 6.00230026 0 0 0 0.000978 0.999999 0.000978
-0.11970800 11.45840263 8.50372219 0 0 0 0.000978 -0.999999 0.000978
-0.12409362 7.12386942 7.98755264 0 0 0 0.000978 -0.999999 0.000978
-3.87155819 11.45840263 7.02992773 0 0 0 0.000978 -0.999999 0.000978
-2.40618563 6.80316830 10.64139271 0 0 0 0.001168 0.220763 -0.975327
-2.32511520 10.08173180 5.55284691 0 0 0 0.000978 -0.999999 0.000978
-1.67855930 6.10574293 4.76768017 0 0 0 0.059387 0.993893 -0.093002
-2.67520332 6.12363625 9.05543804 0 0 0 0.000978 0.999999 0.000978
-0.23424959 6.94291544 10.24004364 0 0 0 -0.006122 0.292617 -0.956210
-4.49085999 9.97388172 8.02453232 0 0 0 0.381263 0.924466 0.001275
-5.72563887 10.01694107 4.63977194 0 0 0 -0.999999 0.000979 0.000979
-0.66935307 8.57474422 6.00515842 0 0 0 0.000978 0.000978 0.999999
-5.69595051 10.78079796 10.58950996 0 0 0 -0.406019 0.913864 0.001289
-5.18110847 9.52899361 10.75727177 0 0 0 -0.977134 -0.212622 0.001162
-5.38398695 9.62770176 5.96607447 0 0 0 0.977134 -0.212622 0.001162
-0.06272984 8.67148590 10.76080894 0 0 0 0.977134 -0.212622 0.001162
0.14488173 8.64128780 10.72203827 0 0 0 0.000978 0.000978 0.999999
-0.04480414 9.00340652 5.97234201 0 0 0 0.000978 0.000978 -0.999999
-0.23803617 6.83459425 9.98864555 0 0 0 0.006540 -0.427740 0.903878
-2.32533598 10.08173180 7.69974852 0 0 0 0.000978 -0.999999 0.000978
-1.27388251 6.10574293 10.19702721 0 0 0 -0.011699 0.996572 0.081895
-3.75543380 10.10576534 5.99355745 0 0 0 0.000978 -0.999999 0.000978
-4.55168438 6.12368345 8.45289612 0 0 0 0.000978 0.999999 0.000978
-0.00819020 6.12356901 4.59342575 0 0 0 0.000978 0.999999 0.000978
-4.35945654 9.87270832 9.38194180 0 0 0 0.000978 -0.999999 0.000978
0.01898957 9.36056423 8.14085388 0 0 0 0.001162 -0.212622 0.977134
-0.03898015 6.38349056 8.07212257 0 0 0 0.000978 -0.999999 0.000978
0.08074439 6.47484350 10.65259552 0 0 0 0.999999 0.000978 0.000978
-2.03395891 6.50092173 10.22263718 0 0 0 -0.999999 0.000978 0.000978
-0.67662287 6.12358570 7.11685896 0 0 0 0.000978 0.999999 0.000978
-0.03919444 8.85846806 8.28094864 0 0 0 0.000978 -0.999999 0.000978
-4.91437817 9.55013084 10.76296616 0 0 0 -0.977134 -0.212622 0.001162
0.02590497 6.97614288 6.00515842 0 0 0 0.000978 0.000978 0.999999
-2.28497195 11.94537926 8.82490540 0 0 0 -0.262509 0.964929 0.001199
-1.46881127 6.46029806 10.53367043 0 0 0 0.999999 0.000978 0.000978
-1.50108588 6.12360668 10.75365925 0 0 0 0.000978 0.999999 0.000978
-4.61799574 11.16992188 4.39006138 0 0 0 0.001219 0.956644 -0.291258
-3.59055829 7.12981224 5.72485352 0 0 0 -0.832674 0.001354 0.553762
-5.23666048 8.93535519 10.75687218 0 0 0 -0.977134 0.212622 0.001162
-1.81337428 6.63086224 7.94282770 0 0 0 0.001147 0.981019 0.193909
-0.31268406 6.10574293 7.47727394 0 0 0 -0.060067 0.997949 -0.022130
-1.22257221 6.10574293 5.40413666 0 0 0 0.005285 0.996838 -0.079282
-0.15601450 7.65217400 10.22771072 0 0 0 0.358194 0.073237 -0.930771
-2.00211978 11.45840263 7.92072868 0 0 0 0.000978 -0.999999 0.000978
-4.49766684 8.17759991 10.72328663 0 0 0 0.000978 0.000978 -0.999999
-0.64538801 8.65719891 5.96587610 0 0 0 0.977134 0.212622 0.001162
-1.58783340 9.10308361 5.95953226 0 0 0 0.977134 0.212622 0.001162
-2.10346270 11.83375645 5.39264631 0 0 0 0.000978 0.000978 -0.999999
-0.91788566 9.08056641 5.94308901 0 0 0 0.977134 0.212622 0.001162
-1.12489831 6.21040249 6.00515747 0 0 0 0.000978 0.000978 0.999999
-2.05966783 9.49600220 5.97234201 0 0 0 0.000978 0.000978 -0.999999
-4.54607010 9.78106308 6.75920105 0 0 0 0.999999 0.000978 0.000978
-2.42953086 9.82863808 5.93704748 0 0 0 0.000978 0.000978 0.999999
-0.01740648 8.24309540 8.35321331 0 0 0 -0.999999 0.000978 0.000978
-1.12674272 10.08173180 4.08203363 0 0 0 0.000978 -0.999999 0.000978
-4.32028532 8.60576248 5.97947502 0 0 0 0.000978 0.999999 0.000978
0.09785242 6.12356615 5.93780327 0 0 0 0.000978 0.999999 0.000978
-2.52664280 6.12363243 8.90729141 0 0 0 0.000978 0.999999 0.000978
0.08074322 6.30291080 7.61695671 0 0 0 0.999999 0.000978 0.000978
-3.99768686 11.45840263 5.65102625 0 0 0 0.000978 -0.999999 0.000978
-1.14595461 6.10574293 9.18557167 0 0 0 -0.040538 0.998892 0.023907
-3.25821352 11.45840263 6.26330185 0 0 0 0.000978 -0.999999 0.000978
-0.92948997 11.45840263 7.43977642 0 0 0 0.000978 -0.999999 0.000978
-1.54697752 10.08173180 7.38360500 0 0 0 0.000978 -0.999999 0.000978
-4.91657543 11.12750340 10.67442703 0 0 0 -0.406019 0.913864 0.001289
-4.70887804 6.12368727 9.97390747 0 0 0 0.000978 0.999999 0.000978
-4.51460171 7.83104229 6.00515509 0 0 0 0.000978 0.000978 0.999999
-3.56915307 11.45840263 6.52103090 0 0 0 0.000978 -0.999999 0.000978
-3.76458955 6.12366390 9.97587872 0 0 0 0.000978 0.999999 0.000978
-4.01291656 7.06542635 5.26392794 0 0 0 0.832674 0.001354 -0.553762
0.08074439 6.69398594 10.20738411 0 0 0 0.999999 0.000978 0.000978
-4.49388027 8.33969021 6.02881670 0 0 0 0.999641 0.009078 -0.025218
-1.37387538 12.19253922 5.81336737 0 0 0 -0.262509 0.964929 0.001199
-2.29909825 11.94154453 7.78683090 0 0 0 -0.262509 0.964929 0.001199
-0.01683372 7.91925192 4.11196232 0 0 0 -0.999999 0.000978 0.000978
-4.24478006 9.38123417 5.95150185 0 0 0 -0.977134 -0.212622 0.001162
-0.80519497 6.12830687 10.28925323 0 0 0 0.999999 0.000978 0.000978
-0.01925499 8.05999565 8.48731899 0 0 0 -0.999999 0.000978 0.000978
-4.38111305 8.48292160 6.00515556 0 0 0 0.000978 0.000978 -0.999999
-3.48399734 11.62009621 6.23468304 0 0 0 -0.262509 0.964929 0.001199
-4.03691864 6.42123270 5.22773552 0 0 0 0.832674 0.001354 -0.553762
-1.47686255 10.08173180 4.14294958 0 0 0 0.000978 -0.999999 0.000978
-1.01607752 6.12359428 8.02041912 0 0 0 0.000978 0.999999 0.000978
-5.22490883 9.87270641 7.29049063 0 0 0 0.000978 -0.999999 0.000978
-1.92134428 10.08173180 6.06542158 0 0 0 0.000978 -0.999999 0.000978
-0.80874681 8.60582638 10.75671005 0 0 0 0.000978 0.999999 0.000978
0.08316807 9.11050224 5.59593725 0 0 0 0.999999 0.000978 0.000978
-2.15746379 11.97997093 9.51812077 0 0 0 -0.262509 0.964929 0.001199
-3.42110682 6.10574293 7.39796686 0 0 0 0.017876 0.997913 -0.062041
-3.20483017 11.45840263 10.20051479 0 0 0 0.000978 -0.999999 0.000978
-0.08633415 8.43555260 10.44177437 0 0 0 0.278891 0.934776 -0.220030
-2.37122941 9.26700497 10.75547695 0 0 0 0.000978 0.000978 0.999999
-2.59830284 11.86037922 10.10549927 0 0 0 -0.262509 0.964929 0.001199
0.03172493 9.46720505 8.32292175 0 0 0 0.001162 -0.212622 -0.977134
-0.39593405 8.85973072 5.94537354 0 0 0 0.977134 -0.212622 0.001162
0.01522703 9.94832230 8.55653095 0 0 0 0.999999 0.000978 0.000978
-3.78141665 11.46491623 8.03676414 0 0 0 0.000978 0.999999 0.000978
-3.42166829 8.66608906 10.77616119 0 0 0 0.977134 -0.212622 0.001162
-5.22373962 9.64745140 5.24576759 0 0 0 0.001098 -0.991141 0.132811
-5.46501541 10.88352585 9.51549339 0 0 0 -0.406019 0.913864 0.001289
0.08316565 6.83575153 4.42441702 0 0 0 0.999999 0.000978 0.000978
-5.23177624 6.12370062 4.64944696 0 0 0 0.000978 0.999999 0.000978
0.08074377 6.70868540 8.36848736 0 0 0 0.999999 0.000978 0.000978
-0.27354535 6.73679066 7.66422701 0 0 0 0.000978 0.000978 0.999999
-0.63195282 10.08173180 9.01889896 0 0 0 0.000978 -0.999999 0.000978
-1.49296522 11.46491623 8.55561256 0 0 0 0.000978 0.999999 0.000978
-1.34486532 11.46491623 6.99656296 0 0 0 0.000978 0.999999 0.000978
-1.95340133 6.12361813 8.29455185 0 0 0 0.000978 0.999999 0.000978
-0.00107565 7.34456444 5.90384865 0 0 0 0.000978 0.000978 0.999999
-3.68613887 10.08173180 10.60099697 0 0 0 0.000978 -0.999999 0.000978
-0.01683361 7.53971386 4.75959635 0 0 0 -0.999999 0.000978 0.000978
-5.05795479 9.63030338 9.65905380 0 0 0 0.000978 -0.999999 0.000978
-4.45283461 9.33369541 10.79054737 0 0 0 0.977134 -0.212622 0.001162
-0.77619272 9.38109016 10.78725624 0 0 0 -0.977134 -0.212622 0.001162
-3.76565170 11.45840263 8.81940460 0 0 0 0.000978 -0.999999 0.000978
-4.57353306 9.87270832 8.99696350 0 0 0 0.000978 -0.999999 0.000978
-1.70225894 8.13617611 6.00664902 0 0 0 0.000978 0.000978 0.999999
-2.83805799 11.79533863 10.69627285 0 0 0 -0.262509 0.964929 0.001199
-1.24203551 10.08173180 9.74907684 0 0 0 0.000978 -0.999999 0.000978
0.08316574 6.16312981 5.40992308 0 0 0 0.999999 0.000978 0.000978
-2.13047242 11.46491623 10.43689251 0 0 0 0.000978 0.999999 0.000978
-5.55110025 9.98497868 10.78501701 0 0 0 -0.977134 -0.212622 0.001162
0.05052100 9.98662281 8.36917877 0 0 0 -0.999999 0.000978 0.000978
-4.71118927 9.63030243 6.03164387 0 0 0 0.000978 -0.999999 0.000978
0.01565943 9.44032192 7.73180532 0 0 0 0.001162 0.212622 -0.977134
-2.54723310 6.10574293 10.51796818 0 0 0 0.009443 0.997768 0.066098
-4.21262932 11.44065189 9.52422523 0 0 0 -0.406019 0.913864 0.001289
-2.94959879 7.70243168 6.00548601 0 0 0 0.000978 0.000978 -0.999999
-1.31277955 6.12360191 10.47509193 0 0 0 0.000978 0.999999 0.000978
-0.31657007 6.30866003 7.73428345 0 0 0 0.000978 0.999999 0.000978
-5.11941099 10.23364830 9.88227749 0 0 0 0.381263 0.924466 0.001275
-0.02524424 10.08173180 8.04416275 0 0 0 0.000978 -0.999999 0.000978
-3.49530268 6.30880451 10.79466820 0 0 0 0.999999 0.000978 0.000978
-0.47338340 8.91973019 5.96059465 0 0 0 0.977134 -0.212622 0.001162
-5.58558798 7.01931334 6.00515413 0 0 0 0.000978 0.000978 0.999999
-1.76326239 10.08173180 10.02196598 0 0 0 0.000978 -0.999999 0.000978
-2.90909171 10.08173180 9.18494225 0 0 0 0.000978 -0.999999 0.000978
-4.21755314 10.08173180 5.43354368 0 0 0 0.000978 -0.999999 0.000978
-3.79228115 7.36957026 5.62860584 0 0 0 -0.838844 0.001351 0.544370
-2.83328032 11.46491623 10.26826382 0 0 0 0.000978 0.999999 0.000978
-0.50773519 9.17886162 5.94453192 0 0 0 0.977134 -0.212622 0.001162
-0.01925622 7.31044388 7.94658756 0 0 0 -0.999999 0.000978 0.000978
-4.77453804 10.08173180 10.34701347 0 0 0 0.000978 -0.999999 0.000978
-0.01683379 6.82234955 5.37491131 0 0 0 -0.999999 0.000978 0.000978
-4.55121994 9.89170361 7.77368498 0 0 0 0.000978 0.999999 0.000978
-1.72247958 6.12361240 5.45393562 0 0 0 0.000978 0.999999 0.000978
-2.38293815 6.76670170 10.63317680 0 0 0 0.001168 0.220763 -0.975327
-5.44305944 9.87270641 8.06365395 0 0 0 0.000978 -0.999999 0.000978
-2.67328334 6.64709139 10.00798702 0 0 0 0.000978 0.000978 0.999999
-5.02424240 10.19431782 9.15587139 0 0 0 0.381263 0.924466 0.001275
-0.26041260 6.30865908 10.06211472 0 0 0 0.000978 0.999999 0.000978
-4.77726698 9.89170361 9.81805801 0 0 0 0.000978 0.999999 0.000978
-2.74859810 6.52290630 8.54695797 0 0 0 0.999999 0.000978 0.000978
-2.20653248 9.52270508 5.97234488 0 0 0 0.000978 0.000978 -0.999999
-1.91346157 9.46789932 10.75547981 0 0 0 0.000978 0.000978 0.999999
0.08074533 8.56536484 8.01359749 0 0 0 0.999999 0.000978 0.000978
-0.01734268 6.11726189 8.59404850 0 0 0 0.000978 -0.999999 0.000978
-2.45810437 9.65589714 5.95271015 0 0 0 -0.977134 0.212622 0.001162
-3.82662082 7.54258919 10.71575642 0 0 0 0.000978 0.000978 -0.999999
-2.58916092 6.10574293 7.96167231 0 0 0 -0.007130 0.999264 -0.037689
-1.43861592 11.45840263 10.41036892 0 0 0 0.000978 -0.999999 0.000978
-3.59163523 8.86115646 5.93704891 0 0 0 0.000978 0.000978 0.999999
-0.01925436 8.37378502 8.91218948 0 0 0 -0.999999 0.000978 0.000978
-1.68015921 6.63179111 8.13404560 0 0 0 0.000978 0.999999 0.000978
-5.12338018 10.23529434 7.95741796 0 0 0 0.381263 0.924466 0.001275
-1.55516124 9.90733814 5.96758795 0 0 0 -0.977134 -0.212622 0.001162
-3.38875842 9.99576664 5.95980215 0 0 0 0.279674 -0.960094 0.001211
-5.48398399 10.38433075 6.54438210 0 0 0 0.381263 0.924466 0.001275
-0.23345876 6.67547512 10.54872608 0 0 0 0.000978 0.000978 0.999999
-1.68964064 6.12361145 5.48002863 0 0 0 0.000978 0.999999 0.000978
0.13173978 9.80441475 5.93929386 0 0 0 0.977134 0.212622 0.001162
-0.09679789 9.65993500 10.79077053 0 0 0 0.000978 0.000978 -0.999999
-1.12273550 11.46491623 6.02741432 0 0 0 0.000978 0.999999 0.000978
-4.25366974 10.08173180 4.45137310 0 0 0 0.000978 -0.999999 0.000978
-2.01376557 6.12361956 9.74469185 0 0 0 0.000978 0.999999 0.000978
-4.58994961 10.08173180 6.43550682 0 0 0 0.000978 -0.999999 0.000978
-4.65515900 9.89170361 9.36857224 0 0 0 0.000978 0.999999 0.000978
-0.24265051 10.08173180 7.40948963 0 0 0 0.000978 -0.999999 0.000978
-4.45490932 8.26042843 6.04870558 0 0 0 0.155946 0.057454 -0.986093
-1.94510865 6.10574293 8.47073078 0 0 0 -0.027453 0.999507 -0.015252
0.03565000 9.27578735 8.70022488 0 0 0 0.001162 0.212622 0.977134
-2.42500281 10.08173180 5.01044846 0 0 0 0.000978 -0.999999 0.000978
-3.77578473 6.10574293 4.71857786 0 0 0 0.059375 0.993684 -0.095223
-3.20335340 11.45840263 10.13455391 0 0 0 0.000978 -0.999999 0.000978
-1.52058196 6.10574293 9.21365356 0 0 0 -0.035944 0.999235 0.015404
-2.47165155 11.45840263 6.10985613 0 0 0 0.000978 -0.999999 0.000978
-2.75483012 6.10574293 4.03863001 0 0 0 0.040122 0.996550 -0.072654
-2.98947024 6.10574293 10.48305798 0 0 0 0.013507 0.998504 0.052990
-5.06268406 11.06249046 5.92376232 0 0 0 -0.406019 0.913864 0.001289
-0.80225551 11.46491623 9.48371792 0 0 0 0.000978 0.999999 0.000978
-0.38291335 6.10574293 10.35074997 0 0 0 -0.016462 0.993202 0.115233
-0.74906564 8.64653206 5.90383720 0 0 0 0.000978 0.000978 0.999999
-3.23561001 9.96600151 8.60130787 0 0 0 -0.092065 -0.978349 -0.185358
-4.36535168 9.92740059 5.11938477 0 0 0 0.003789 0.935854 -0.352366
-0.21434486 10.08173180 5.98914862 0 0 0 0.000978 -0.999999 0.000978
-0.58271867 11.45840263 7.70849991 0 0 0 0.000978 -0.999999 0.000978
-4.20257330 6.10574293 4.51926327 0 0 0 0.049792 0.994730 -0.089625
-3.92182541 7.25180054 10.71575642 0 0 0 0.000978 0.000978 -0.999999
-0.91218507 6.60612583 10.34080315 0 0 0 0.000978 0.999999 0.000978
-2.67155957 8.79783916 10.77578163 0 0 0 -0.977134 -0.212622 0.001162
-2.24774647 11.46491623 10.73464489 0 0 0 0.000978 0.999999 0.000978
-0.20974721 6.44449854 9.55199242 0 0 0 0.036162 -0.021697 -0.999110
-0.00074881 6.10574293 5.61511850 0 0 0 -0.037573 0.997285 -0.063337
-0.37875089 10.08173180 5.45984411 0 0 0 0.000978 -0.999999 0.000978
-1.06738830 6.65618515 10.52412510 0 0 0 0.000978 -0.999999 0.000978
-4.78154802 9.63030338 9.27022743 0 0 0 0.000978 -0.999999 0.000978
-3.68061233 9.57997608 5.96020365 0 0 0 0.977134 0.212622 0.001162
-3.78384137 9.79814720 5.94512653 0 0 0 -0.977134 0.212622 0.001162
0.06950401 6.38511658 5.90384102 0 0 0 0.000978 0.000978 0.999999
-0.08786258 6.19042635 7.57461309 0 0 0 0.000978 0.000978 0.999999
-0.28481108 9.63577938 10.76824474 0 0 0 -0.977134 0.212622 0.001162
-0.01683393 6.31524992 5.77094793 0 0 0 -0.999999 0.000978 0.000978
-2.63713479 6.10574293 9.89872932 0 0 0 -0.007061 0.999604 0.027234
-5.50509405 8.93670177 5.94915342 0 0 0 -0.977134 -0.212622 0.001162
-1.43008721 12.17729568 8.68954754 0 0 0 -0.262509 0.964929 0.001199
-3.49070334 7.31238985 10.74649429 0 0 0 0.000978 -0.999999 0.000978
0.12625861 6.10574293 9.69718552 0 0 0 -0.040599 0.995215 0.088878
-2.08104658 9.33298016 10.79077435 0 0 0 0.000978 0.000978 -0.999999
-1.36919880 6.10574293 7.35792589 0 0 0 -0.032352 0.998730 -0.038613
-4.11579323 11.45840263 7.08804035 0 0 0 0.000978 -0.999999 0.000978
-5.57028866 6.10574293 6.08749962 0 0 0 0.080212 0.989276 -0.122061
-4.51775885 9.95960999 5.97841215 0 0 0 0.000978 0.999999 0.000978
0.05052366 9.09652615 10.28101540 0 0 0 -0.999999 0.000978 0.000978
-0.23458365 10.08173180 4.52714586 0 0 0 0.000978 -0.999999 0.000978
-0.59806216 11.46491623 9.98640728 0 0 0 0.000978 0.999999 0.000978
-0.01925635 6.28093910 9.79420948 0 0 0 -0.999999 0.000978 0.000978
0.04818948 8.96890640 7.07523012 0 0 0 -0.999999 0.000978 0.000978
-4.82757854 7.11215448 6.00515461 0 0 0 0.000978 0.000978 0.999999
-5.47557354 10.89658356 4.11660910 0 0 0 -0.420274 0.907321 0.011783
-1.37034249 6.39168549 10.23338699 0 0 0 -0.999999 0.000978 0.000978
-4.52492237 11.30173206 10.80742359 0 0 0 -0.406019 0.913864 0.001289
-5.18124914 9.89170361 8.03947735 0 0 0 0.000978 0.999999 0.000978
-2.38461852 6.10574293 7.92686987 0 0 0 -0.011251 0.999296 -0.035799
-0.44584683 12.44430161 7.13137722 0 0 0 -0.262509 0.964929 0.001199
-0.31281924 6.85788298 8.12460899 0 0 0 -0.999999 0.000978 -0.000978
0.01522545 9.38359165 7.15535164 0 0 0 0.999999 0.000978 0.000978
0.01522634 9.52807045 8.03393459 0 0 0 0.999999 0.000978 0.000978
0.00555129 7.11591196 8.49950027 0 0 0 -0.999999 0.000978 0.000978
-0.74389541 11.45840263 10.24870872 0 0 0 0.000978 -0.999999 0.000978
-2.11833811 6.86977434 10.49894333 0 0 0 0.999991 0.002950 -0.002950
-5.72872972 10.77951622 4.42896605 0 0 0 -0.420274 0.907321 0.011783
0.01522827 9.63834858 9.99910164 0 0 0 0.999999 0.000978 0.000978
-3.36404800 6.17187166 10.65368366 0 0 0 -0.999999 0.000978 0.000978
-0.31543884 6.43597364 8.12335300 0 0 0 -0.999999 0.000978 -0.000978
-0.01687722 9.88830376 10.71389198 0 0 0 0.999999 0.000978 0.000978
-4.53646469 9.87270832 8.91268635 0 0 0 0.000978 -0.999999 0.000978
-1.29089737 10.08173180 7.18729687 0 0 0 0.000978 -0.999999 0.000978
-0.01925644 7.36114740 7.47358370 0 0 0 -0.999999 0.000978 0.000978
-5.72511768 8.60580254 5.94373941 0 0 0 0.000978 0.999999 0.000978
0.01522973 9.00573349 10.40813923 0 0 0 0.999999 0.000978 0.000978
-3.18551183 8.65434170 10.72215271 0 0 0 0.000978 0.000978 0.999999
0.08074416 6.35408545 10.50596619 0 0 0 0.999999 0.000978 0.000978
-0.17723274 12.51716995 5.67649126 0 0 0 -0.262509 0.964929 0.001199
-5.62812567 9.87270641 9.37407780 0 0 0 0.000978 -0.999999 0.000978
0.04163098 8.65968990 10.00921822 0 0 0 0.001162 0.212622 0.977134
-5.27297688 9.84079361 5.97234106 0 0 0 0.000978 0.000978 -0.999999
-2.96418333 11.76111507 6.42620420 0 0 0 -0.262509 0.964929 0.001199
-1.39384389 6.64171934 10.71122169 0 0 0 -0.707106 0.001384 -0.707106
-3.51611829 11.45840263 6.26869202 0 0 0 0.000978 -0.999999 0.000978
-3.78781414 6.23382521 10.71575642 0 0 0 0.000978 0.000978 -0.999999
-0.06526148 6.10574293 10.22857761 0 0 0 -0.023195 0.992981 0.115977
-1.03101301 6.10574293 5.53230047 0 0 0 -0.007385 0.997002 -0.077017
-0.24844187 11.25842285 4.68212605 0 0 0 0.001219 0.956644 -0.291258
0.08074418 6.96934319 9.03798676 0 0 0 0.999999 0.000978 0.000978
-4.21857309 11.43799877 7.18231201 0 0 0 -0.406019 0.913864 0.001289
-3.06909966 11.73265076 5.66200018 0 0 0 -0.262509 0.964929 0.001199
-2.97295713 8.68132591 6.00373459 0 0 0 0.000978 0.000978 -0.999999
-2.46017265 10.08173180 6.14326191 0 0 0 0.000978 -0.999999 0.000978
-4.28594875 9.88919640 7.22502470 0 0 0 0.381263 0.924466 0.001275
-0.92914784 9.23184776 5.93705130 0 0 0 0.000978 0.000978 0.999999
-1.65667510 8.60582161 5.94508410 0 0 0 0.000978 0.999999 0.000978
-2.07059050 6.79585028 10.63974380 0 0 0 0.001168 0.220763 -0.975327
-0.25660536 6.52426004 9.66829681 0 0 0 0.006596 -0.449840 0.893085
-5.43056965 9.87270641 7.99690294 0 0 0 0.000978 -0.999999 0.000978
-1.25233018 9.03428745 5.97234631 0 0 0 0.000978 0.000978 -0.999999
-5.42419195 10.08173180 9.86024666 0 0 0 0.000978 -0.999999 0.000978
-2.69757605 6.23498821 10.14532471 0 0 0 -0.999999 0.000978 0.000978
-3.67163825 8.70279884 5.93882799 0 0 0 0.977134 0.212622 0.001162
-2.07352829 11.46491623 7.58184052 0 0 0 0.000978 0.999999 0.000978
-4.67685986 11.23413181 7.85580778 0 0 0 -0.406019 0.913864 0.001289
-0.36304572 8.65148354 10.72228241 0 0 0 0.000978 0.000978 0.999999
-0.01683194 9.26219654 5.39141941 0 0 0 -0.999999 0.000978 0.000978
-2.55710864 10.08173180 9.69641113 0 0 0 0.000978 -0.999999 0.000978
-2.21793079 6.65193701 8.32695866 0 0 0 0.000978 -0.999999 0.000978
-2.81336427 8.68782520 5.90374136 0 0 0 0.000978 0.000978 0.999999
-4.51045752 8.49970245 6.01314306 0 0 0 0.000978 0.000978 0.999999
-1.17162704 11.46491623 6.07657766 0 0 0 0.000978 0.999999 0.000978
0.01356156 6.11725998 4.10387993 0 0 0 0.000978 -0.999999 0.000978
-2.45816946 6.12363052 6.10290384 0 0 0 0.000978 0.999999 0.000978
-5.36899662 9.97927666 5.94894171 0 0 0 -0.977134 -0.212622 0.001162
-3.86275029 8.29776573 6.08461475 0 0 0 0.072203 0.033407 -0.996830
-5.30822086 6.12370253 9.92247772 0 0 0 0.000978 0.999999 0.000978
-0.62661564 6.12358475 6.48959827 0 0 0 0.000978 0.999999 0.000978
-5.10191870 11.04504299 7.52055025 0 0 0 -0.406019 0.913864 0.001289
-2.13696480 6.65193701 8.83444786 0 0 0 0.000978 -0.999999 0.000978
-4.51687860 8.33311462 6.00515509 0 0 0 0.000978 0.000978 0.999999
-2.83413839 10.08173180 9.49366760 0 0 0 0.000978 -0.999999 0.000978
-0.01925522 8.39618111 7.43452549 0 0 0 -0.999999 0.000978 0.000978
-5.08979750 9.89170361 8.83728218 0 0 0 0.000978 0.999999 0.000978
0.08312190 8.74585533 10.34303570 0 0 0 -0.999999 0.000978 0.000978
-0.31447870 11.46491623 8.86714554 0 0 0 0.000978 0.999999 0.000978
-5.43805981 6.10574293 10.74826622 0 0 0 0.046010 0.998936 0.003067
0.08074592 8.39218616 9.34876633 0 0 0 0.999999 0.000978 0.000978
-3.26391649 6.10574293 5.48106146 0 0 0 0.050504 0.993255 -0.104376
-5.47005320 6.10574293 8.30088902 0 0 0 0.060146 0.996241 -0.062333
-3.39293599 6.12365437 4.01970482 0 0 0 0.000978 0.999999 0.000978
-5.25493622 9.89170265 5.84678507 0 0 0 0.000978 0.999999 0.000978
-4.01718760 9.99332428 5.97136116 0 0 0 -0.279674 -0.960094 0.001211
-0.01683233 8.33340359 5.90378237 0 0 0 -0.999999 0.000978 0.000978
-0.35850799 6.86152554 9.08297729 0 0 0 -0.999999 0.000978 0.000978
-1.62999773 10.08173180 7.54012680 0 0 0 0.000978 -0.999999 0.000978
-2.71480799 10.10577106 10.81708145 0 0 0 0.000978 -0.999999 0.000978
-3.11496973 6.12364769 5.07708549 0 0 0 0.000978 0.999999 0.000978
-1.00333452 10.08173180 5.01934004 0 0 0 0.000978 -0.999999 0.000978
0.08316700 8.44194031 4.65089703 0 0 0 0.999999 0.000978 0.000978
0.00419201 10.08173180 8.96136856 0 0 0 0.000978 -0.999999 0.000978
-4.74324894 6.64585876 6.00515509 0 0 0 0.000978 0.000978 0.999999
-2.87044883 6.12364101 9.71898746 0 0 0 0.000978 0.999999 0.000978
-0.69688523 11.38754368 5.10824633 0 0 0 0.001219 0.956644 -0.291258
0.04818957 9.41861248 6.71498871 0 0 0 -0.999999 0.000978 0.000978
-5.57757759 6.12370968 4.32975960 0 0 0 0.000978 0.999999 0.000978
0.08316840 9.60726738 5.53948164 0 0 0 0.999999 0.000978 0.000978
-2.60535073 11.77333832 5.39264679 0 0 0 0.000978 0.000978 -0.999999
-2.26400828 6.10562468 5.98550081 0 0 0 0.000978 -0.999999 0.000978
-3.87542844 11.45840263 8.53494263 0 0 0 0.000978 -0.999999 0.000978
-3.10711575 9.96831226 8.56455421 0 0 0 0.094542 0.978567 0.182944
-1.94814634 6.12361765 9.07300949 0 0 0 0.000978 0.999999 0.000978
-4.49530792 7.50229931 10.79308605 0 0 0 -0.999999 0.000978 0.000978
-0.58568150 12.40636730 7.46442413 0 0 0 -0.262509 0.964929 0.001199
-4.17109823 11.45912647 9.41815758 0 0 0 -0.406019 0.913864 0.001289
-1.29320037 6.63138819 8.07501316 0 0 0 0.000978 0.999999 0.000978
-5.44475651 9.37411308 5.96082687 0 0 0 0.977134 0.212622 0.001162
0.08316603 7.57231903 4.12814999 0 0 0 0.999999 0.000978 0.000978
-0.07171066 11.46491623 5.51213932 0 0 0 0.000978 0.999999 0.000978
-1.58890104 9.19515419 10.75850391 0 0 0 0.977134 -0.212622 0.001162
-1.80871689 6.12361431 9.70809650 0 0 0 0.000978 0.999999 0.000978
0.04169105 9.17424107 9.47154617 0 0 0 0.001162 -0.212622 -0.977134
-1.38773942 6.59971619 10.37926483 0 0 0 -0.707106 0.707106 0.001384
-4.25334454 9.74635983 5.93704796 0 0 0 0.000978 0.000978 0.999999
0.08074414 7.31502771 7.98243046 0 0 0 0.999999 0.000978 0.000978
-1.53048503 6.62781000 10.16395283 0 0 0 0.999999 0.000978 0.000978
-0.01925616 6.22597361 10.22147083 0 0 0 -0.999999 0.000978 0.000978
-2.84209371 11.45840263 10.36980820 0 0 0 0.000978 -0.999999 0.000978
-3.95502496 7.32677078 5.17472076 0 0 0 -0.832674 0.001354 0.553762
-0.01925429 8.42613602 8.92455482 0 0 0 -0.999999 0.000978 0.000978
-4.95766544 10.08173180 7.53683853 0 0 0 0.000978 -0.999999 0.000978
-2.29971385 11.46491623 7.95201302 0 0 0 0.000978 0.999999 0.000978
-0.13457310 10.08173180 9.54575157 0 0 0 0.000978 -0.999999 0.000978
-5.14150429 11.03058815 5.14164257 0 0 0 -0.420274 0.907321 0.011783
-0.22128406 6.93205357 10.54541111 0 0 0 -0.000978 -0.000978 0.999999
-5.21140766 9.74892712 10.55791664 0 0 0 0.001093 -0.991782 -0.127937
0.14128327 11.45840263 8.99714184 0 0 0 0.000978 -0.999999 0.000978
-4.47950172 9.11363316 10.79077339 0 0 0 0.000978 0.000978 -0.999999
-1.89331424 7.16193628 10.62682438 0 0 0 0.001168 -0.975327 -0.220763
-3.13290691 6.12364769 6.42161560 0 0 0 0.000978 0.999999 0.000978
-1.70036721 10.08173180 6.52986193 0 0 0 0.000978 -0.999999 0.000978
0.04448268 9.74837971 7.06055069 0 0 0 0.001162 0.212622 0.977134
0.01522863 9.90322590 9.93040657 0 0 0 0.999999 0.000978 0.000978
-5.45642614 6.12370634 5.52658749 0 0 0 0.000978 0.999999 0.000978
-5.12518930 9.95960712 10.77604485 0 0 0 0.000978 0.999999 0.000978
-4.54606628 9.77830219 6.17041111 0 0 0 0.999999 0.000978 0.000978
-3.50181103 11.61526871 8.38903332 0 0 0 -0.262509 0.964929 0.001199
0.01522587 9.40782833 7.58986473 0 0 0 0.999999 0.000978 0.000978
-3.51347709 8.42845345 6.00515604 0 0 0 0.000978 0.000978 -0.999999
-2.78352022 6.63138819 8.38263607 0 0 0 0.000978 0.999999 0.000978
-5.34069252 9.87270737 9.80534172 0 0 0 0.000978 -0.999999 0.000978
-3.56560564 10.08173180 4.35786295 0 0 0 0.000978 -0.999999 0.000978
-0.13496006 6.12357235 5.81093740 0 0 0 0.000978 0.999999 0.000978
-1.81648886 9.99052334 5.90378714 0 0 0 0.000978 0.000978 0.999999
-2.00400591 6.65618610 10.17135143 0 0 0 0.000978 -0.999999 0.000978
-0.80519497 6.34566450 10.39021492 0 0 0 0.999999 0.000978 0.000978
0.02715576 9.15455246 8.21256733 0 0 0 0.001162 0.212622 -0.977134
-3.84657788 6.12366581 10.14278793 0 0 0 0.000978 0.999999 0.000978
-5.13677549 10.08173180 5.50177765 0 0 0 0.000978 -0.999999 0.000978
-2.75789952 6.12363815 10.02157497 0 0 0 0.000978 0.999999 0.000978
-1.20069361 9.19794941 5.96598721 0 0 0 -0.977134 0.212622 0.001162
0.08074457 6.93322134 10.01959038 0 0 0 0.999999 0.000978 0.000978
-4.49530268 6.25879049 10.81099415 0 0 0 0.999999 0.000978 0.000978
0.05052039 9.46943092 7.77072001 0 0 0 -0.999999 0.000978 0.000978
-1.31503522 6.38418341 9.25134182 0 0 0 -0.555013 -0.831841 0.001357
0.15693606 6.12356472 10.05881882 0 0 0 0.000978 0.999999 0.000978
-0.01687790 9.69822216 10.62817574 0 0 0 0.999999 0.000978 0.000978
-2.65847588 11.45840263 9.36752510 0 0 0 0.000978 -0.999999 0.000978
-3.50184846 11.46491623 6.87097645 0 0 0 0.000978 0.999999 0.000978
-0.45989975 11.45775127 5.39264393 0 0 0 0.000978 0.000978 -0.999999
-4.11702490 6.10574293 6.64107466 0 0 0 0.040679 0.994996 -0.091254
-0.20629650 6.84410095 9.66098499 0 0 0 0.003613 -0.263727 0.964591
-3.49413276 7.04002285 5.97412252 0 0 0 -0.553762 0.001354 -0.832674
-4.02578306 11.45840263 10.50946999 0 0 0 0.000978 -0.999999 0.000978
0.02535402 9.37711143 9.31134033 0 0 0 0.001162 0.212622 0.977134
-2.31837511 6.12362719 6.21617079 0 0 0 0.000978 0.999999 0.000978
-3.50309873 8.13550282 5.89862442 0 0 0 0.000978 0.999999 0.000978
-3.10301423 11.72345448 8.04771805 0 0 0 -0.262509 0.964929 0.001199
-3.47946358 11.45840263 5.81384993 0 0 0 0.000978 -0.999999 0.000978
-1.10900819 11.45840263 8.10634899 0 0 0 0.000978 -0.999999 0.000978
-2.55177188 6.66009521 10.53739452 0 0 0 0.001168 0.975327 0.220763
-0.01687769 9.38190746 10.69250298 0 0 0 0.999999 0.000978 0.000978
-2.70667768 9.70830917 5.97234392 0 0 0 0.000978 0.000978 -0.999999
-4.36912012 9.87270832 9.20755005 0 0 0 0.000978 -0.999999 0.000978
-4.85792923 11.15358543 8.76736259 0 0 0 -0.406019 0.913864 0.001289
-2.72231817 8.91286564 10.78744316 0 0 0 0.977134 0.212622 0.001162
-3.44682932 6.12365532 6.82697105 0 0 0 0.000978 0.999999 0.000978
-2.02148271 6.63179111 9.10291862 0 0 0 0.000978 0.999999 0.000978
