//X Y Z R G B Nx Ny Nz
708
0.79165757 9.56577396 5.97234154 0 0 0 0.000978 0.000978 -0.999999
-0.46011937 11.72747993 11.49523067 0 0 0 0.000978 0.000978 0.999999
4.25461054 6.10574293 7.89942408 0 0 0 -0.130922 0.987224 0.090820
3.60287237 10.08173180 9.96007729 0 0 0 0.000978 -0.999999 0.000978
-2.11664438 6.62839174 10.42471409 0 0 0 -0.999999 0.000978 0.000978
-1.29533172 8.88018036 5.95839500 0 0 0 0.977134 -0.212622 0.001162
5.81361866 8.51035976 6.56096411 0 0 0 -0.999999 0.000978 0.000978
3.30225277 4.36006021 3.38596272 0 0 0 0.066109 -0.993878 -0.088519
-3.71466708 11.45840263 5.41493988 0 0 0 0.000978 -0.999999 0.000978
-5.03063631 9.89170361 9.91700363 0 0 0 0.000978 0.999999 0.000978
5.90291023 7.31132746 3.68653250 0 0 0 0.999999 0.000978 0.000978
5.70472193 8.12455845 7.66244173 0 0 0 0.468736 0.001320 -0.883337
3.33923793 7.32628727 10.72166061 0 0 0 0.000978 0.000978 -0.999999
-1.70767856 8.35123634 6.00515699 0 0 0 0.000978 0.000978 0.999999
4.27474117 10.08173180 9.58577728 0 0 0 0.000978 -0.999999 0.000978
-3.61541700 11.45840263 6.11559772 0 0 0 0.000978 -0.999999 0.000978
4.77502108 6.12344837 9.04923820 0 0 0 0.000978 0.999999 0.000978
3.17007351 4.36006021 9.00703335 0 0 0 0.027398 -0.999538 0.013192
-0.68605208 11.46491623 11.49465275 0 0 0 0.000978 0.999999 0.000978
1.44529462 6.12353277 3.05388975 0 0 0 0.000978 0.999999 0.000978
-1.72487926 6.10574293 4.49599934 0 0 0 0.059148 0.994348 -0.088163
-1.98792124 8.54717064 6.00515699 0 0 0 0.000978 0.000978 0.999999
-1.41250348 6.12360430 7.54541016 0 0 0 0.000978 0.999999 0.000978
-1.40409184 8.67195797 5.96923113 0 0 0 0.977134 0.212622 0.001162
-0.21848011 6.10574293 8.10475349 0 0 0 -0.067905 0.997687 -0.003134
0.12870121 6.12356567 7.64511538 0 0 0 0.000978 0.999999 0.000978
0.06150508 8.45496273 10.82745552 0 0 0 0.000978 0.000978 0.999999
5.98031521 10.08173180 9.60393620 0 0 0 0.000978 -0.999999 0.000978
-3.04385686 6.10574293 8.05950832 0 0 0 0.003056 0.999206 -0.039724
-3.91006422 11.45840263 6.46536636 0 0 0 0.000978 -0.999999 0.000978
-4.23430395 9.86785507 5.74590302 0 0 0 0.381263 0.924466 0.001275
2.88819718 6.12349606 5.15142059 0 0 0 0.000978 0.999999 0.000978
0.31954336 7.99478722 10.82745457 0 0 0 0.000978 0.000978 0.999999
-5.08903265 4.36006021 6.08420324 0 0 0 -0.043665 -0.997896 -0.047925
-1.79456449 12.07841492 7.02075195 0 0 0 -0.262509 0.964929 0.001199
-0.01925612 6.60270119 9.53472233 0 0 0 -0.999999 0.000978 0.000978
5.12771511 10.08173180 10.53356457 0 0 0 0.000978 -0.999999 0.000978
-1.50956345 4.28416872 5.23090744 0 0 0 0.000978 0.999999 0.000978
-2.10468817 6.12362194 13.30666447 0 0 0 0.000978 0.999999 0.000978
-0.01683387 8.62662315 2.97280002 0 0 0 -0.999999 0.000978 0.000978
-0.01683333 7.50538397 5.27908134 0 0 0 -0.999999 0.000978 0.000978
2.62648869 4.36006021 6.77255154 0 0 0 0.021654 -0.999186 -0.034028
1.67674518 11.01442909 3.87690210 0 0 0 0.001219 0.956644 -0.291258
-1.99482298 6.10574293 11.34555244 0 0 0 0.003232 0.994518 0.104516
2.02691269 4.36006021 3.11812425 0 0 0 0.043063 -0.994860 -0.091646
4.02807617 11.46491623 6.95774937 0 0 0 0.000978 0.999999 0.000978
0.15543175 4.28416872 7.42682552 0 0 0 0.000978 0.999999 0.000978
-0.37365130 7.08363199 9.76646519 0 0 0 0.999999 0.000978 0.000978
-0.38278556 4.36006021 9.16051960 0 0 0 -0.002991 -0.999852 0.016947
-0.17281547 10.08173180 3.32952356 0 0 0 0.000978 -0.999999 0.000978
3.98143148 6.12346840 4.60029459 0 0 0 0.000978 0.999999 0.000978
-4.87543631 6.19718742 10.82745171 0 0 0 0.000978 0.000978 0.999999
1.10433745 12.28671741 6.01197863 0 0 0 0.262509 0.964929 0.001199
5.54910564 6.10574293 8.84580803 0 0 0 -0.118460 0.976359 0.180807
-5.44609737 10.08173180 8.93311501 0 0 0 0.000978 -0.999999 0.000978
-3.24751425 10.77479362 13.80657101 0 0 0 0.001217 0.957524 0.288352
5.81361341 8.86561108 11.55461121 0 0 0 -0.999999 0.000978 0.000978
2.21148014 6.12351322 12.07276726 0 0 0 0.000978 0.999999 0.000978
1.74443460 10.77430820 13.80817318 0 0 0 0.001217 0.957524 0.288352
-4.49308681 6.12368202 13.20211411 0 0 0 0.000978 0.999999 0.000978
-2.50484324 8.85086250 5.93704987 0 0 0 0.000978 0.000978 0.999999
4.23229551 6.33437586 10.82745743 0 0 0 0.000978 0.000978 0.999999
-0.34537029 6.12357759 11.49669838 0 0 0 0.000978 0.999999 0.000978
-1.20949686 12.23714161 10.32628536 0 0 0 -0.262509 0.964929 0.001199
-0.40820324 4.36006021 11.27581787 0 0 0 -0.011451 -0.998294 0.057254
-0.53786886 12.41933537 6.06644154 0 0 0 -0.262509 0.964929 0.001199
-2.61173296 4.36006021 14.27048111 0 0 0 -0.047966 -0.993903 0.099279
-1.77466166 7.63152933 6.00515747 0 0 0 0.000978 0.000978 0.999999
0.70454115 4.36006021 5.07977200 0 0 0 0.017911 -0.997772 -0.064270
-3.39453769 6.64294863 5.93639326 0 0 0 0.999999 0.000978 0.000978
-3.03144002 10.08173180 6.67584276 0 0 0 0.000978 -0.999999 0.000978
5.45091629 6.78145695 7.52782536 0 0 0 0.468736 0.001320 -0.883337
5.45235729 6.10724449 9.34497833 0 0 0 0.000978 -0.999999 0.000978
-5.36677694 6.12370443 12.29090595 0 0 0 0.000978 0.999999 0.000978
4.20860577 4.28416824 9.65315247 0 0 0 0.000978 0.999999 0.000978
3.68435597 11.58678818 10.90142822 0 0 0 0.262509 0.964929 0.001199
0.67565417 6.12355185 13.40174389 0 0 0 0.000978 0.999999 0.000978
3.49112415 4.28416777 11.21994686 0 0 0 0.000978 0.999999 0.000978
0.04318274 9.17970467 9.00606060 0 0 0 0.001162 -0.212622 0.977134
4.39215660 9.73100853 5.95333815 0 0 0 0.977134 0.212622 0.001162
5.91361380 8.46878338 11.36618996 0 0 0 0.999999 0.000978 0.000978
2.18882489 10.08173180 9.50479794 0 0 0 0.000978 -0.999999 0.000978
-5.14043283 4.28416920 6.32913399 0 0 0 0.000978 0.999999 0.000978
1.54381037 10.08173180 8.56177711 0 0 0 0.000978 -0.999999 0.000978
2.45397925 11.92057419 8.77595997 0 0 0 0.262509 0.964929 0.001199
-3.93279314 10.08173180 13.52112484 0 0 0 0.000978 -0.999999 0.000978
-2.64363575 6.65193701 8.32188988 0 0 0 0.000978 -0.999999 0.000978
-5.01677322 6.12369490 8.74286842 0 0 0 0.000978 0.999999 0.000978
-3.67631531 11.45840263 9.85766220 0 0 0 0.000978 -0.999999 0.000978
4.16077232 11.27523327 4.73760033 0 0 0 0.001219 0.956644 -0.291258
3.19031024 10.08173180 4.90119553 0 0 0 0.000978 -0.999999 0.000978
-4.08120394 6.10574293 13.62622356 0 0 0 -0.026615 0.997534 0.064941
0.08074643 8.35000706 10.28314018 0 0 0 0.999999 0.000978 0.000978
4.41265202 6.12345743 11.96317005 0 0 0 0.000978 0.999999 0.000978
-1.63850784 6.12361050 12.55820274 0 0 0 0.000978 0.999999 0.000978
-0.10916051 10.10578346 10.76717281 0 0 0 0.000978 -0.999999 0.000978
3.52021885 10.08173180 4.02438927 0 0 0 0.000978 -0.999999 0.000978
5.91361904 6.39288139 6.56900883 0 0 0 0.999999 0.000978 0.000978
3.95271778 8.33298397 10.82745743 0 0 0 0.000978 0.000978 0.999999
5.15055943 11.07360268 12.62784290 0 0 0 0.420274 0.907321 -0.011783
4.09012222 11.46491623 11.12154961 0 0 0 0.000978 0.999999 0.000978
-3.27896547 8.66382217 5.93704891 0 0 0 0.000978 0.000978 0.999999
-2.41095304 6.12362957 13.79349613 0 0 0 0.000978 0.999999 0.000978
-1.12025213 6.10574293 4.22458315 0 0 0 0.054008 0.995293 -0.080461
5.81361961 9.78362751 5.36772633 0 0 0 -0.999999 0.000978 0.000978
-1.77981257 6.12361383 12.15810394 0 0 0 0.000978 0.999999 0.000978
-4.71710968 4.36006021 5.07673359 0 0 0 -0.044191 -0.996997 -0.063592
-0.06522495 10.08173180 4.52023649 0 0 0 0.000978 -0.999999 0.000978
5.49269009 4.36006021 9.88282967 0 0 0 0.047343 -0.998413 0.030510
4.52443504 11.18550014 4.44146395 0 0 0 0.001219 0.956644 -0.291258
-0.01683428 6.71847343 4.68853855 0 0 0 -0.999999 0.000978 0.000978
-2.57820725 6.10562325 10.80082417 0 0 0 0.000978 -0.999999 0.000978
0.22905874 6.12356281 4.12105751 0 0 0 0.000978 0.999999 0.000978
-2.27183723 11.45840263 9.59115887 0 0 0 0.000978 -0.999999 0.000978
0.56955576 4.36006021 9.92063618 0 0 0 0.005063 -0.999494 0.031392
5.82347584 6.36450481 12.66210938 0 0 0 -0.999999 0.000978 0.000978
0.46844888 7.32346392 6.00515890 0 0 0 0.000978 0.000978 0.999999
-0.85494554 11.46491623 9.58549118 0 0 0 0.000978 0.999999 0.000978
-5.30822802 9.88027287 6.40474987 0 0 0 0.000978 0.000978 0.999999
0.38846654 9.95960617 5.95270300 0 0 0 0.000978 0.999999 0.000978
2.66914129 4.28416777 11.67494011 0 0 0 0.000978 0.999999 0.000978
5.91334820 5.29560041 5.53020382 0 0 0 0.989361 -0.110706 -0.094391
-2.51174903 7.76535416 6.03229713 1 1 1 0.000978 0.000978 0.999999
5.81361914 6.64182091 6.16262150 0 0 0 -0.999999 0.000978 0.000978
-4.36223841 8.60576248 10.76634026 0 0 0 0.000978 0.999999 0.000978
4.18742704 6.10574293 5.93902016 0 0 0 -0.159086 0.987233 -0.007898
-4.31800747 4.36006021 12.10816765 0 0 0 -0.055884 -0.996048 0.069033
-2.34714866 6.47394896 9.38309097 1 1 1 0.000978 0.000978 -0.999999
3.77432704 11.46491623 9.11676407 0 0 0 0.000978 0.999999 0.000978
-4.90427446 6.10574293 11.41352844 0 0 0 0.029965 0.999162 0.027898
2.60401154 4.28416872 6.41903019 0 0 0 0.000978 0.999999 0.000978
4.59068012 7.30905914 10.82745838 0 0 0 0.000978 0.000978 0.999999
0.19568546 11.46491623 8.94144440 0 0 0 0.000978 0.999999 0.000978
-4.88419867 4.36006021 12.44729710 0 0 0 -0.065307 -0.995106 0.074162
-5.59175158 10.82715797 12.98428440 0 0 0 -0.420274 0.907321 -0.011783
-4.31554699 9.90142345 10.20523739 0 0 0 0.381263 0.924466 0.001275
2.00580454 8.87836361 5.94618750 0 0 0 -0.977134 0.212622 0.001162
-2.69635844 11.45840263 7.58911800 0 0 0 0.000978 -0.999999 0.000978
5.51115513 4.36006021 8.99159908 0 0 0 0.046577 -0.998824 0.013456
-4.44554377 6.10574293 2.91506338 0 0 0 -0.005093 0.999277 -0.037689
1.00516009 6.12354374 7.42978764 0 0 0 0.000978 0.999999 0.000978
3.64384699 11.45840263 5.48931837 0 0 0 0.000978 -0.999999 0.000978
1.29380131 4.36006021 12.91862011 0 0 0 0.001052 -0.996710 0.081042
5.62564278 7.43315983 7.73710155 0 0 0 -0.468736 0.001320 0.883337
5.91361332 9.12305546 11.63368988 0 0 0 0.999999 0.000978 0.000978
5.83410692 9.38954449 12.12776375 0 0 0 0.000978 0.000978 -0.999999
-5.50891304 4.36006021 5.71245718 0 0 0 -0.048310 -0.997331 -0.054751
-4.74642467 6.26476336 10.82745171 0 0 0 0.000978 0.000978 0.999999
-4.08098030 10.08173180 6.71610641 0 0 0 0.000978 -0.999999 0.000978
1.58202481 7.23572874 6.00515938 0 0 0 0.000978 0.000978 0.999999
-3.50333929 8.56784248 6.00515604 0 0 0 0.000978 0.000978 -0.999999
5.81361914 8.89596939 5.80199957 0 0 0 -0.999999 0.000978 0.000978
0.08316568 8.20841599 2.72449660 0 0 0 0.999999 0.000978 0.000978
0.05940032 6.12356758 7.27259779 0 0 0 0.000978 0.999999 0.000978
-1.67437482 6.12361097 9.28531551 0 0 0 0.000978 0.999999 0.000978
1.39195454 8.03937054 6.00515938 0 0 0 0.000978 0.000978 0.999999
0.96370584 10.08173180 14.27385426 0 0 0 0.000978 -0.999999 0.000978
4.66921854 6.10574293 12.74424458 0 0 0 -0.024008 0.986630 0.161199
-2.04788566 10.08173180 9.23755169 0 0 0 0.000978 -0.999999 0.000978
-0.90226555 6.10574293 6.00640965 0 0 0 -0.035418 0.997082 -0.067617
5.86512184 8.12765503 12.62197590 0 0 0 -0.000978 0.000978 0.999999
-4.48284769 7.67257166 10.81575584 0 0 0 0.000978 0.000978 0.999999
3.19884586 4.28416872 6.28737068 0 0 0 0.000978 0.999999 0.000978
2.61712217 4.36006021 12.60838604 0 0 0 0.020258 -0.996925 0.075702
-2.45831656 10.08173180 4.22948599 0 0 0 0.000978 -0.999999 0.000978
-5.10047722 11.04568768 8.68491077 0 0 0 -0.406019 0.913864 0.001289
0.90444040 7.75452852 10.82745552 0 0 0 0.000978 0.000978 0.999999
0.02798191 9.51843071 8.49270535 0 0 0 0.001162 -0.212622 -0.977134
-2.57578421 6.10574293 12.57431602 0 0 0 -0.018445 0.994943 0.098735
0.03750744 8.85262108 9.87702847 0 0 0 0.001162 0.212622 0.977134
-2.08100224 4.28416824 11.78589249 0 0 0 0.000978 0.999999 0.000978
5.81361532 7.81445026 9.98772812 0 0 0 -0.999999 0.000978 0.000978
1.44818163 11.46491623 7.68652678 0 0 0 0.000978 0.999999 0.000978
-0.01925418 7.79605675 10.37340546 0 0 0 -0.999999 0.000978 0.000978
0.44101429 4.28416872 6.74343014 0 0 0 0.000978 0.999999 0.000978
3.24179268 8.31194973 10.72979832 1 1 1 0.001003 0.025067 -0.999685
-0.39270902 6.10574293 5.26459837 0 0 0 -0.005244 0.997364 -0.072364
-0.01683490 6.37472916 4.08368587 0 0 0 -0.999999 0.000978 0.000978
-1.25508165 6.12360048 8.18812084 0 0 0 0.000978 0.999999 0.000978
-0.19727588 11.00597572 13.04200459 0 0 0 0.001217 0.957524 0.288352
5.23271704 11.02138424 4.97920036 0 0 0 0.420274 0.907321 0.011783
-5.52849579 9.89170265 7.68285513 0 0 0 0.000978 0.999999 0.000978
1.39093339 9.85219955 10.79061317 0 0 0 -0.977134 0.212622 0.001162
-3.41934776 6.54151058 10.72283077 0 0 0 0.000978 0.000978 -0.999999
0.08316776 9.60553360 12.74178600 0 0 0 0.999999 0.000978 0.000978
-3.48977232 6.12365675 8.61791039 0 0 0 0.000978 0.999999 0.000978
-0.78666162 10.96086311 3.70012808 0 0 0 0.001219 0.956644 -0.291258
2.06175375 6.10574293 6.08915377 0 0 0 -0.109412 0.993549 -0.029840
5.81361818 6.29829788 6.73914146 0 0 0 -0.999999 0.000978 0.000978
1.29336333 6.12353611 13.66053581 0 0 0 0.000978 0.999999 0.000978
-4.38591814 9.93051529 5.97040558 0 0 0 0.381263 0.924466 0.001275
-4.66735935 10.08173180 10.15601254 0 0 0 0.000978 -0.999999 0.000978
1.05576038 10.70204163 14.04717159 0 0 0 0.001217 0.957524 0.288352
0.76109898 10.08173180 3.50867295 0 0 0 0.000978 -0.999999 0.000978
-0.14406036 11.46491623 10.66072750 0 0 0 0.000978 0.999999 0.000978
0.37803054 4.36006021 9.70590973 0 0 0 0.003020 -0.999626 0.027180
-2.26558566 6.12362576 5.52525711 0 0 0 0.000978 0.999999 0.000978
-1.15162373 4.28416824 12.31416035 0 0 0 0.000978 0.999999 0.000978
3.48938537 8.60584641 10.73003101 0 0 0 0.000978 0.999999 0.000978
-1.19892120 4.28416872 6.33988380 0 0 0 0.000978 0.999999 0.000978
3.48396802 6.10574293 12.93274212 0 0 0 -0.023737 0.989028 0.145811
-4.21849585 8.60576344 5.90895367 0 0 0 0.000978 0.999999 0.000978
-3.98830271 11.45840263 8.22214508 0 0 0 0.000978 -0.999999 0.000978
-1.07154727 11.46491623 11.34928799 0 0 0 0.000978 0.999999 0.000978
-5.25548458 9.87270641 7.32828903 0 0 0 0.000978 -0.999999 0.000978
-1.80856931 12.07462120 9.71192360 0 0 0 -0.262509 0.964929 0.001199
-2.66126776 6.12363625 11.12785721 0 0 0 0.000978 0.999999 0.000978
5.91923952 7.40423393 3.58622384 0 0 0 -0.999999 0.000978 -0.000978
3.13158655 10.08173180 7.19177532 0 0 0 0.000978 -0.999999 0.000978
1.04358780 8.78963089 10.75983810 0 0 0 0.977134 -0.212622 0.001162
0.74736738 11.41471863 11.69021130 0 0 0 0.001217 0.957524 0.288352
-4.38113308 6.10574293 12.81104755 0 0 0 -0.005153 0.998605 0.052558
2.55265379 10.08173180 5.77535629 0 0 0 0.000978 -0.999999 0.000978
0.45749056 9.13499165 10.76211643 0 0 0 0.977134 0.212622 0.001162
4.56927872 10.08173180 12.79838181 0 0 0 0.000978 -0.999999 0.000978
0.04601476 8.83781242 6.62457705 0 0 0 0.001162 0.212622 0.977134
2.18071103 7.18634701 10.82745647 0 0 0 0.000978 0.000978 0.999999
0.08316794 8.78858948 5.78194380 0 0 0 0.999999 0.000978 0.000978
-5.00415707 6.10561132 5.94387722 0 0 0 0.000978 -0.999999 0.000978
2.76915312 6.12349892 13.58151436 0 0 0 0.000978 0.999999 0.000978
-4.75703907 6.12368870 6.97509098 0 0 0 0.000978 0.999999 0.000978
3.21247077 10.08173180 13.47606945 0 0 0 0.000978 -0.999999 0.000978
-1.14392138 6.65618515 10.24221897 0 0 0 0.000978 -0.999999 0.000978
-1.88713694 12.05330467 8.57288742 0 0 0 -0.262509 0.964929 0.001199
5.68243599 8.38875294 6.00516319 0 0 0 0.000978 0.000978 0.999999
-4.98113632 6.10574293 4.64468908 0 0 0 0.050002 0.994482 -0.092226
-0.53607637 6.10574293 10.93865299 0 0 0 -0.003326 0.990032 0.140800
-2.62405658 11.46491623 5.71920109 0 0 0 0.000978 0.999999 0.000978
6.07027054 7.56941223 12.99866199 0 0 0 -0.686955 -0.308726 -0.657861
-1.29709232 9.28989792 10.78491783 0 0 0 0.977134 -0.212622 0.001162
2.94453526 6.10574293 14.17792034 0 0 0 0.007172 0.999003 0.044059
0.26433265 6.24614525 6.00515842 0 0 0 0.000978 0.000978 0.999999
5.58637476 10.08173180 3.03419971 0 0 0 0.000978 -0.999999 0.000978
0.75022507 4.28416872 4.57393646 0 0 0 0.000978 0.999999 0.000978
-2.38065529 11.24586487 4.64068508 0 0 0 0.001219 0.956644 -0.291258
3.50601077 4.36006021 9.68847275 0 0 0 0.029903 -0.999165 0.027841
-0.04309213 10.08173180 11.61643887 0 0 0 0.000978 -0.999999 0.000978
-2.08740044 9.27946186 10.77935600 0 0 0 -0.977134 0.212622 0.001162
0.68231297 6.10574293 8.13441372 0 0 0 -0.088606 0.996020 0.009608
1.04477894 12.30287361 6.56910992 0 0 0 0.262509 0.964929 0.001199
3.26529551 11.47352219 5.39263916 0 0 0 0.000978 0.000978 -0.999999
-4.05808020 11.46491623 7.99461269 0 0 0 0.000978 0.999999 0.000978
5.80122852 10.06725979 10.72592449 0 0 0 -0.999999 0.000978 0.000978
4.59594774 8.14993095 6.00516176 0 0 0 0.000978 0.000978 0.999999
-4.30908775 8.14959049 6.00515556 0 0 0 0.000978 0.000978 0.999999
-3.12405276 10.08173180 3.02968216 0 0 0 0.000978 -0.999999 0.000978
-5.69174480 10.07449150 5.50607967 0 0 0 0.003789 0.935854 -0.352366
-0.03232366 4.28416920 2.91115546 0 0 0 0.000978 0.999999 0.000978
2.43584681 6.12350750 7.03579807 0 0 0 0.000978 0.999999 0.000978
0.40819168 10.08173180 7.84230900 0 0 0 0.000978 -0.999999 0.000978
-3.31107903 4.28416920 2.78399944 0 0 0 0.000978 0.999999 0.000978
-3.94971752 4.28416872 9.80188847 0 0 0 0.000978 0.999999 0.000978
5.99968052 6.10574293 6.90935326 0 0 0 -0.173488 0.982303 0.070592
1.36362731 6.12353420 9.70325661 0 0 0 0.000978 0.999999 0.000978
-1.36819875 8.18406105 10.70308018 1 1 1 0.001022 -0.048051 -0.998844
-3.16525650 4.28416872 7.54505825 0 0 0 0.000978 0.999999 0.000978
4.60418940 11.30097961 6.59557199 0 0 0 0.406019 0.913864 0.001289
-0.31563652 6.90815306 10.19967556 1 1 1 -0.999976 0.000983 0.006883
-5.46296453 4.36006021 13.26805878 0 0 0 -0.082652 -0.992954 0.084916
2.90375352 6.12349558 12.53646564 0 0 0 0.000978 0.999999 0.000978
0.65456438 6.10574293 9.12829685 0 0 0 -0.060392 0.995925 0.066981
-5.59720421 4.28416872 10.15180492 0 0 0 0.000978 0.999999 0.000978
0.67458963 4.36006021 3.58482909 0 0 0 0.027094 -0.995960 -0.085616
-2.15567827 11.46491623 8.45867252 0 0 0 0.000978 0.999999 0.000978
1.91033876 11.46491623 9.48009300 0 0 0 0.000978 0.999999 0.000978
-4.08731604 9.36987495 5.95508242 0 0 0 0.977134 0.212622 0.001162
4.04998827 6.20478630 10.82745838 0 0 0 0.000978 0.000978 0.999999
0.08316773 9.73279476 12.53518486 0 0 0 0.999999 0.000978 0.000978
-3.26695251 6.10574293 5.26360798 0 0 0 0.064788 0.992284 -0.105707
2.48494148 4.36006021 8.54336357 0 0 0 0.021016 -0.999775 0.003002
-4.02699852 10.66668892 14.16409492 0 0 0 0.001217 0.957524 0.288352
-0.07889733 6.69503880 10.35444260 0 0 0 0.000978 0.999999 0.000978
-0.34805584 4.28416872 6.53701973 0 0 0 0.000978 0.999999 0.000978
-3.75917721 11.17543030 4.40823936 0 0 0 0.001219 0.956644 -0.291258
-4.62326336 4.28416824 11.02152443 0 0 0 0.000978 0.999999 0.000978
-3.79474401 6.12366438 6.15670013 0 0 0 0.000978 0.999999 0.000978
2.56960535 11.88920689 8.71455193 0 0 0 0.262509 0.964929 0.001199
-4.70921087 9.89170361 9.01174164 0 0 0 0.000978 0.999999 0.000978
-3.72067285 6.12366247 4.49831009 0 0 0 0.000978 0.999999 0.000978
-5.45313597 8.69662857 5.96741438 0 0 0 -0.977134 -0.212622 0.001162
3.37158322 11.46491623 6.83659172 0 0 0 0.000978 0.999999 0.000978
2.35510087 4.36006021 7.56635904 0 0 0 0.019244 -0.999667 -0.017218
0.61523563 6.12355328 5.77935457 0 0 0 0.000978 0.999999 0.000978
-3.54777122 10.08173180 6.42488766 0 0 0 0.000978 -0.999999 0.000978
-5.29296017 9.87270737 11.37611771 0 0 0 0.000978 -0.999999 0.000978
-5.56687355 6.12370872 6.60501242 0 0 0 0.000978 0.999999 0.000978
-0.35938168 7.14539766 7.58844948 0 0 0 0.001327 -0.484515 0.874782
-3.30668092 10.06565857 10.72214699 0 0 0 0.000978 0.000978 0.999999
5.81362104 9.18045139 3.62890434 0 0 0 -0.999999 0.000978 0.000978
1.23113728 12.25231171 9.41643429 0 0 0 0.262509 0.964929 0.001199
2.97452593 4.36006021 8.45330906 0 0 0 0.025067 -0.999685 0.001003
-2.32211137 11.93529701 5.59060240 0 0 0 -0.262509 0.964929 0.001199
-3.09907389 10.08173180 13.93521118 0 0 0 0.000978 -0.999999 0.000978
-0.04408359 6.75053596 10.64719486 0 0 0 0.000978 0.000978 -0.999999
1.39414632 12.20809555 6.67305136 0 0 0 0.262509 0.964929 0.001199
-5.69605684 4.28416920 6.23777008 0 0 0 0.000978 0.999999 0.000978
-1.77306056 11.16655636 12.51093197 0 0 0 0.001217 0.957524 0.288352
-5.48109722 6.12370682 3.14545059 0 0 0 0.000978 0.999999 0.000978
-3.17146587 7.56413221 6.00548649 1 1 1 0.000978 0.000978 -0.999999
4.82148409 10.70218849 2.84645367 0 0 0 0.001219 0.956644 -0.291258
3.76928329 4.28416920 3.02441406 0 0 0 0.000978 0.999999 0.000978
4.14114761 4.28416777 13.81860161 0 0 0 0.000978 0.999999 0.000978
-5.56894636 4.36006021 6.96816206 0 0 0 -0.049342 -0.998380 -0.028345
-1.22437298 10.10577774 5.94714022 0 0 0 0.000978 -0.999999 0.000978
2.30109477 8.76258659 5.95096302 0 0 0 -0.977134 0.212622 0.001162
-0.21794409 8.07034111 10.45181656 1 1 1 0.355111 -0.021794 0.934570
-4.10081387 6.12367249 9.76652431 0 0 0 0.000978 0.999999 0.000978
-0.22718744 12.50361824 5.99750996 0 0 0 -0.262509 0.964929 0.001199
2.48457384 11.91227913 6.35879850 0 0 0 0.262509 0.964929 0.001199
5.24421024 10.08173180 13.99300289 0 0 0 0.000978 -0.999999 0.000978
5.02509880 8.78718758 10.79077053 0 0 0 0.000978 0.000978 -0.999999
0.52193534 11.54449749 5.39264250 0 0 0 0.000978 0.000978 -0.999999
1.86955523 12.07912445 6.62869740 0 0 0 0.262509 0.964929 0.001199
1.13158405 10.08173180 6.17770386 0 0 0 0.000978 -0.999999 0.000978
-3.37225509 10.91990089 3.56494617 0 0 0 0.001219 0.956644 -0.291258
2.94915462 11.46491623 7.40515423 0 0 0 0.000978 0.999999 0.000978
4.08857536 7.95512819 6.00516176 0 0 0 0.000978 0.000978 0.999999
-1.99194241 6.60612583 10.65324879 0 0 0 0.000978 0.999999 0.000978
2.89704514 6.12349558 8.06707668 0 0 0 0.000978 0.999999 0.000978
4.12328482 11.46491623 8.42812729 0 0 0 0.000978 0.999999 0.000978
1.14759231 6.12353992 3.49742079 0 0 0 0.000978 0.999999 0.000978
-1.54386282 6.49696684 9.45243931 1 1 1 0.000978 0.000978 0.999999
0.08316561 7.65442324 3.31265330 0 0 0 0.999999 0.000978 0.000978
3.50341797 6.12348032 10.90395069 0 0 0 0.000978 0.999999 0.000978
0.47837588 8.66454124 10.77844238 0 0 0 0.977134 -0.212622 0.001162
1.53496337 6.10574293 11.88789558 0 0 0 -0.044305 0.978307 0.202367
4.30672979 8.59358788 6.00538588 1 1 1 0.001093 -0.127937 0.991782
-4.63002157 9.35071087 10.76057816 0 0 0 0.977134 -0.212622 0.001162
-2.70231533 8.96669292 5.93704796 0 0 0 0.000978 0.000978 0.999999
5.91361189 9.72011662 13.15449905 0 0 0 0.999999 0.000978 0.000978
-3.02468753 11.45840263 7.68721533 0 0 0 0.000978 -0.999999 0.000978
1.95181799 4.36006021 6.34687042 0 0 0 0.017562 -0.998948 -0.042355
2.42081237 11.92957783 6.26044655 0 0 0 0.262509 0.964929 0.001199
3.43389130 4.28416824 8.09746456 0 0 0 0.000978 0.999999 0.000978
0.08950377 4.36006021 4.03964043 0 0 0 0.024674 -0.996623 -0.078314
5.85619259 9.72476768 12.83082294 0 0 0 -0.001218 -0.286119 0.958193
5.56557274 4.36006021 14.21698856 0 0 0 0.093427 -0.990787 0.098041
2.21047831 4.28416777 13.82492065 0 0 0 0.000978 0.999999 0.000978
-0.10297260 11.12556648 4.24367809 0 0 0 0.001219 0.956644 -0.291258
1.16975689 4.28416777 13.51229477 0 0 0 0.000978 0.999999 0.000978
2.89096928 4.36006021 6.19898129 0 0 0 0.024002 -0.998704 -0.044874
5.83975220 9.39006424 13.00932884 0 0 0 -0.001218 -0.286119 0.958193
3.38970208 10.08173180 5.15699196 0 0 0 0.000978 -0.999999 0.000978
5.43031263 10.93347549 7.32759666 0 0 0 0.406019 0.913864 0.001289
-5.37219906 4.28416920 6.09388161 0 0 0 0.000978 0.999999 0.000978
-2.06518054 10.08173180 4.09477425 0 0 0 0.000978 -0.999999 0.000978
4.15163231 11.46491623 11.13220596 0 0 0 0.000978 0.999999 0.000978
3.47058749 7.99899673 5.94950294 0 0 0 -0.999999 0.000978 0.000978
-5.09150887 4.36006021 9.80505371 0 0 0 -0.045054 -0.998522 0.030385
-0.01683369 7.85972738 12.50678062 0 0 0 -0.999999 0.000978 0.000978
-4.03577757 6.10574293 5.44314623 0 0 0 0.072336 0.990882 -0.113670
0.01749055 9.16736317 9.89934444 0 0 0 0.001162 0.212622 0.977134
3.59364843 11.45840263 6.09140825 0 0 0 0.000978 -0.999999 0.000978
-4.39322329 10.01109886 10.82209682 0 0 0 0.000978 0.000978 -0.999999
2.07549381 10.87479973 3.41610193 0 0 0 0.001219 0.956644 -0.291258
-5.51481962 9.84027863 11.00356007 0 0 0 0.001100 0.990809 0.135260
-1.07897973 11.45840263 10.71772480 0 0 0 0.000978 -0.999999 0.000978
4.28796387 4.36006021 11.19482040 0 0 0 0.030755 -0.997945 0.056207
0.97927666 4.28416872 9.88388824 0 0 0 0.000978 0.999999 0.000978
2.52280450 11.90190887 6.23758125 0 0 0 0.262509 0.964929 0.001199
2.27321243 11.12488747 4.24143124 0 0 0 0.001219 0.956644 -0.291258
5.81361485 6.62777376 10.15605640 0 0 0 -0.999999 0.000978 0.000978
-4.34712410 8.98641872 5.94410467 0 0 0 0.977134 -0.212622 0.001162
0.06614995 4.36006021 5.37124491 0 0 0 0.009368 -0.998195 -0.059330
-4.17705488 6.12367392 14.01028728 0 0 0 0.000978 0.999999 0.000978
3.91072679 10.10577393 10.77204800 0 0 0 0.000978 -0.999999 0.000978
-0.01687803 9.97084427 10.14433002 0 0 0 0.999999 0.000978 0.000978
-2.65804315 10.08173180 4.30128384 0 0 0 0.000978 -0.999999 0.000978
-0.26722351 10.70643234 14.03265190 0 0 0 0.001217 0.957524 0.288352
3.61890268 6.10574293 8.19462013 0 0 0 -0.115622 0.989214 0.089929
-1.77262616 6.69785929 6.00515747 0 0 0 0.000978 0.000978 0.999999
5.91361809 6.21266460 7.59313297 0 0 0 0.999999 0.000978 0.000978
5.81361389 6.24959087 11.22666550 0 0 0 -0.999999 0.000978 0.000978
0.01522826 9.64488506 9.80668831 0 0 0 0.999999 0.000978 0.000978
-5.03170347 4.28416920 6.62295198 0 0 0 0.000978 0.999999 0.000978
0.04377791 9.17369461 7.72753716 0 0 0 0.001162 0.212622 0.977134
-2.18384433 10.08173180 11.44130993 0 0 0 0.000978 -0.999999 0.000978
-3.67882419 11.46491623 9.15973091 0 0 0 0.000978 0.999999 0.000978
-3.80116987 6.10574293 8.90860271 0 0 0 0.015252 0.999507 -0.027453
-4.67665052 6.12368679 14.01089382 0 0 0 0.000978 0.999999 0.000978
-4.84585953 10.12059975 7.28623343 0 0 0 0.381263 0.924466 0.001275
-5.27092648 9.19488430 10.75601292 0 0 0 -0.977134 0.212622 0.001162
-4.03817034 6.12367058 13.33447552 0 0 0 0.000978 0.999999 0.000978
-0.02992600 8.38102818 8.32026196 1 1 1 0.999999 0.000978 0.000978
-0.00331836 9.48306656 6.80012798 1 1 1 0.999736 -0.022971 0.000999
0.02331589 8.88960934 8.17662430 0 0 0 0.001162 -0.212622 -0.977134
5.82347584 7.09447193 4.27698565 0 0 0 -0.999999 0.000978 0.000978
1.20641506 11.11209583 12.69104004 0 0 0 0.001217 0.957524 0.288352
3.43174553 6.12348223 9.91291332 0 0 0 0.000978 0.999999 0.000978
-4.54729795 7.55903387 6.01314306 0 0 0 0.000978 0.000978 0.999999
-3.41537213 9.99908829 10.82214165 0 0 0 0.000978 0.000978 -0.999999
-0.04961109 4.28416777 13.25385094 0 0 0 0.000978 0.999999 0.000978
1.70828390 6.10574293 6.81644917 0 0 0 -0.105638 0.994304 -0.014158
-2.02979469 6.10790634 10.82745266 0 0 0 0.000978 0.000978 0.999999
-5.72934914 4.36006021 2.99045324 0 0 0 -0.093255 -0.991265 -0.093255
3.63541365 10.08173180 5.34156847 0 0 0 0.000978 -0.999999 0.000978
4.37988663 4.28416824 9.84972000 0 0 0 0.000978 0.999999 0.000978
0.08316649 7.41616964 13.36040306 0 0 0 0.999999 0.000978 0.000978
-1.29869747 4.28416824 12.85113049 0 0 0 0.000978 0.999999 0.000978
5.54823399 6.12342882 9.84893990 0 0 0 0.000978 0.999999 0.000978
5.91361332 8.47694016 11.83066368 0 0 0 0.999999 0.000978 0.000978
1.98168254 12.04870796 5.60629034 0 0 0 0.262509 0.964929 0.001199
-1.14572060 6.10574293 13.58802414 0 0 0 -0.027195 0.995345 0.092464
5.35516930 4.28416824 9.43465233 0 0 0 0.000978 0.999999 0.000978
-3.71645546 4.36006021 6.86909199 0 0 0 -0.032158 -0.998965 -0.032158
-2.66721082 10.08173180 5.82547426 0 0 0 0.000978 -0.999999 0.000978
2.71795511 7.58417988 10.82745647 0 0 0 0.000978 0.000978 0.999999
1.43726790 8.75916481 10.77581310 0 0 0 0.977134 0.212622 0.001162
5.39212465 6.12343311 7.55499458 0 0 0 0.000978 0.999999 0.000978
4.29077959 6.10574293 4.36178970 0 0 0 -0.060190 0.997891 -0.024287
4.12483692 4.36006021 5.91415930 0 0 0 0.034926 -0.998043 -0.051860
0.00929117 6.43778801 5.90384150 0 0 0 0.000978 0.000978 0.999999
3.02299428 10.89252281 3.47458887 0 0 0 0.001219 0.956644 -0.291258
1.89282393 11.45840263 9.48724651 0 0 0 0.000978 -0.999999 0.000978
5.90990114 6.49437428 4.32103062 0 0 0 0.999999 0.000978 0.000978
3.56037545 4.36006021 8.07330608 0 0 0 0.031392 -0.999482 -0.007089
-0.21131887 6.71794558 6.00515842 0 0 0 0.000978 0.000978 0.999999
-3.15280890 10.08173180 7.80038452 0 0 0 0.000978 -0.999999 0.000978
-0.05194160 6.12356997 6.08820963 0 0 0 0.000978 0.999999 0.000978
-4.20995092 6.12367487 8.01092529 0 0 0 0.000978 0.999999 0.000978
-5.49873495 9.56260777 12.00038528 0 0 0 0.001093 -0.991782 -0.127937
-0.21264100 6.38804340 9.67767143 0 0 0 -0.004086 -0.821204 -0.570621
-1.66980553 4.28416872 10.16358280 0 0 0 0.000978 0.999999 0.000978
4.84187889 10.08173180 9.48862839 0 0 0 0.000978 -0.999999 0.000978
5.79050016 7.83657885 9.15858078 0 0 0 -0.885003 0.001319 0.465583
0.20224357 12.53144073 6.25934315 0 0 0 0.262509 0.964929 0.001199
4.49101019 10.08173180 4.16513205 0 0 0 0.000978 -0.999999 0.000978
-3.33720136 11.46491623 7.14048576 0 0 0 0.000978 0.999999 0.000978
-1.53753018 10.69310093 14.07674408 0 0 0 0.001217 0.957524 0.288352
-1.96558797 6.43625116 7.89362383 1 1 1 0.000978 0.000978 -0.999999
-2.96176147 8.88515472 10.78658295 0 0 0 -0.977134 -0.212622 0.001162
-0.01683333 8.64885044 12.12293911 0 0 0 -0.999999 0.000978 0.000978
-2.76774120 10.91719151 13.33563232 0 0 0 0.001217 0.957524 0.288352
5.45476818 4.28416872 3.69628334 0 0 0 0.000978 0.999999 0.000978
1.79039764 8.91845417 5.96665764 0 0 0 -0.977134 -0.212622 0.001162
0.08316721 8.41565895 5.03274632 0 0 0 0.999999 0.000978 0.000978
-0.28117609 8.62624168 10.82228756 0 0 0 0.000978 0.000978 -0.999999
-1.25955987 6.10574293 13.58336830 0 0 0 -0.027195 0.995345 0.092464
-2.60077620 11.45840263 10.35678673 0 0 0 0.000978 -0.999999 0.000978
-0.24803081 6.57530642 9.87705517 0 0 0 0.003679 -0.295548 0.955321
5.82719088 9.67253017 8.61925507 0 0 0 -0.999999 0.000978 0.000978
2.40076375 6.12350845 7.60056210 0 0 0 0.000978 0.999999 0.000978
0.34124145 9.79162407 5.96359730 0 0 0 -0.977134 -0.212622 0.001162
0.08312064 8.65157127 7.45700121 0 0 0 -0.999999 0.000978 0.000978
5.81361866 9.49047470 6.51304340 0 0 0 -0.999999 0.000978 0.000978
1.20957983 11.81356239 5.39264154 0 0 0 0.000978 0.000978 -0.999999
-1.86339080 10.08173180 8.42594910 0 0 0 0.000978 -0.999999 0.000978
-1.51395249 12.15454292 8.12413979 0 0 0 -0.262509 0.964929 0.001199
5.91332912 4.95001173 4.86220980 0 0 0 0.989361 -0.110706 -0.094391
2.22167468 11.98359013 11.34667778 0 0 0 0.262509 0.964929 0.001199
-3.64304519 8.63791847 5.94368172 0 0 0 -0.276796 0.960928 0.001209
-4.21511269 4.28416920 5.90635204 0 0 0 0.000978 0.999999 0.000978
2.30599737 4.36006021 4.94868135 0 0 0 0.035348 -0.997237 -0.065340
0.82477987 7.96954298 6.00515890 0 0 0 0.000978 0.000978 0.999999
5.44978809 6.56420088 9.37773037 0 0 0 0.468736 0.001320 0.883337
-4.92905092 6.10574293 11.38577557 0 0 0 0.032029 0.999098 0.027896
-4.42611027 6.10574293 5.71569681 0 0 0 0.065164 0.991172 -0.115465
2.72532058 6.10574293 9.90624809 0 0 0 -0.060513 0.983640 0.169675
3.58089328 8.68883991 10.78372478 0 0 0 -0.977134 0.212622 0.001162
0.74291277 12.09614849 5.39264250 0 0 0 0.000978 0.000978 -0.999999
-0.48369646 7.03571177 6.00515842 0 0 0 0.000978 0.000978 0.999999
-0.38986740 7.66600561 10.43023777 0 0 0 -0.968810 0.126367 0.213164
0.40472022 10.08173180 9.95081997 0 0 0 0.000978 -0.999999 0.000978
2.91234303 7.61494541 10.82166004 0 0 0 0.000978 0.000978 0.999999
-2.62239265 4.28416872 6.72572231 0 0 0 0.000978 0.999999 0.000978
-4.93069887 6.12369299 9.41832161 0 0 0 0.000978 0.999999 0.000978
5.87510300 10.10573101 11.08504391 0 0 0 0.000978 0.999999 0.000978
-2.61363673 6.10574293 5.81550789 0 0 0 0.011839 0.995536 -0.093634
5.91361380 7.33435726 11.24295235 0 0 0 0.999999 0.000978 0.000978
-2.09094810 4.36006021 9.72513008 0 0 0 -0.019397 -0.999432 0.027563
-5.47373152 6.10574293 14.16524887 0 0 0 -0.023717 0.999207 0.031966
-0.19319001 6.39098024 8.40939426 1 1 1 -0.001278 -0.924094 -0.382163
5.22306919 8.89345360 5.97234583 0 0 0 0.000978 0.000978 -0.999999
0.49267411 9.98417282 10.78861523 0 0 0 0.977134 -0.212622 0.001162
-3.53704190 4.28416920 2.70275831 0 0 0 0.000978 0.999999 0.000978
0.01254296 11.55912304 5.39264297 0 0 0 0.000978 0.000978 -0.999999
-4.63583994 6.12368584 9.80684853 0 0 0 0.000978 0.999999 0.000978
1.64515448 11.30773354 4.84485483 0 0 0 0.001219 0.956644 -0.291258
-4.68911600 10.05581951 7.56188393 0 0 0 0.381263 0.924466 0.001275
-4.74660015 6.12368822 3.42381549 0 0 0 0.000978 0.999999 0.000978
0.08316638 8.09630299 12.33549309 0 0 0 0.999999 0.000978 0.000978
1.04678226 10.08173180 4.27807474 0 0 0 0.000978 -0.999999 0.000978
1.33607817 10.08173180 10.69437504 0 0 0 0.000978 -0.999999 0.000978
4.90026951 10.08173180 11.57216263 0 0 0 0.000978 -0.999999 0.000978
0.08316498 7.17258263 2.87784600 0 0 0 0.999999 0.000978 0.000978
5.91361952 9.58683586 5.16928005 0 0 0 0.999999 0.000978 0.000978
-5.15965557 4.36006021 10.48912334 0 0 0 -0.045605 -0.998013 0.043484
2.11581659 6.12351561 14.09406471 0 0 0 0.000978 0.999999 0.000978
4.70158291 4.28416872 4.87387276 0 0 0 0.000978 0.999999 0.000978
2.21961069 10.08173180 9.26094532 0 0 0 0.000978 -0.999999 0.000978
3.09307146 8.74941158 10.75634098 0 0 0 -0.977134 -0.212622 0.001162
-3.06875992 11.07406998 12.81680584 0 0 0 0.001217 0.957524 0.288352
3.74959707 8.70766258 5.97234201 0 0 0 0.000978 0.000978 -0.999999
-1.78117776 11.45840263 5.60140991 0 0 0 0.000978 -0.999999 0.000978
3.48540998 11.45840263 8.26964855 0 0 0 0.000978 -0.999999 0.000978
0.22906561 11.46491623 5.39169645 0 0 0 0.000978 0.999999 0.000978
0.08316461 6.14003515 3.55706906 0 0 0 0.999999 0.000978 0.000978
-3.14717078 7.15015125 10.63326740 0 0 0 0.001168 -0.220763 0.975327
3.69777656 6.12347555 3.29867172 0 0 0 0.000978 0.999999 0.000978
2.31116366 10.08173180 10.33653927 0 0 0 0.000978 -0.999999 0.000978
-0.26657429 6.85395145 10.23146343 0 0 0 0.006122 -0.292617 0.956210
1.28054273 12.23891258 7.57250261 0 0 0 0.262509 0.964929 0.001199
-3.72796535 6.13043499 5.67800999 0 0 0 0.000978 0.999999 0.000978
0.51030600 11.45840263 10.30222893 0 0 0 0.000978 -0.999999 0.000978
-5.39830351 9.87611771 10.46830559 0 0 0 0.001093 0.991782 0.127937
-2.47071934 6.10574293 3.01218724 0 0 0 0.007158 0.999095 -0.041927
-3.18091059 9.00118160 10.79077244 0 0 0 0.000978 0.000978 -0.999999
0.08316539 6.79637146 4.03717566 0 0 0 0.999999 0.000978 0.000978
0.08316541 6.81712532 4.02946615 0 0 0 0.999999 0.000978 0.000978
5.84823370 9.76911259 4.41320419 0 0 0 -0.001215 0.285453 0.958392
-0.19390368 6.10574293 10.11945057 0 0 0 -0.025267 0.994218 0.104365
5.91331387 5.78067589 4.34042835 0 0 0 0.989662 -0.101414 -0.101414
5.66335583 6.12342596 6.06596947 0 0 0 0.000978 0.999999 0.000978
-0.01925408 7.96672153 10.19853973 0 0 0 -0.999999 0.000978 0.000978
-2.02826977 9.13482094 5.95237112 0 0 0 -0.977134 0.212622 0.001162
1.47298288 4.36006021 9.43280411 0 0 0 0.013140 -0.999688 0.021227
-2.93032789 7.75837517 6.00784206 1 1 1 0.000978 0.000978 0.999999
-0.62285537 11.45840263 8.55568790 0 0 0 0.000978 -0.999999 0.000978
2.54209185 11.46491623 10.91181564 0 0 0 0.000978 0.999999 0.000978
4.83435822 11.19857597 10.21742439 0 0 0 0.406019 0.913864 0.001289
4.02135515 7.10809135 6.00516176 0 0 0 0.000978 0.000978 0.999999
3.88044596 10.08173180 10.67425823 0 0 0 0.000978 -0.999999 0.000978
0.07473981 6.12356710 11.24594593 0 0 0 0.000978 0.999999 0.000978
3.13432360 11.46491623 5.38718128 0 0 0 0.000978 0.999999 0.000978
5.81361961 7.66325855 5.57910728 0 0 0 -0.999999 0.000978 0.000978
5.79662514 10.77050972 10.41614723 0 0 0 0.406019 0.913864 0.001289
-5.62761402 10.26254559 6.00046062 0 0 0 0.003789 0.935854 -0.352366
0.51855242 12.44563103 6.52838945 0 0 0 0.262509 0.964929 0.001199
2.75097704 4.28416824 9.53809071 0 0 0 0.000978 0.999999 0.000978
-3.72471404 8.64017487 5.95424032 0 0 0 -0.276796 0.960928 0.001209
-5.27486372 10.08173180 5.70789766 0 0 0 0.000978 -0.999999 0.000978
0.19473267 4.36006021 3.16820598 0 0 0 0.011816 -0.995753 -0.091304
-4.16606951 11.46137142 11.51365757 0 0 0 -0.406019 0.913864 0.001289
0.06251568 9.01392174 5.93782663 0 0 0 -0.977134 0.212622 0.001162
4.53404903 6.10574293 8.80625725 0 0 0 -0.108085 0.982483 0.151805
-0.01925702 6.20314217 8.82884789 0 0 0 -0.999999 0.000978 0.000978
-4.58907652 7.82278490 6.01314306 0 0 0 0.000978 0.000978 0.999999
-3.91416359 8.67195988 5.90369081 0 0 0 0.000978 0.000978 0.999999
0.01995779 9.13798141 9.02721882 0 0 0 0.001162 -0.212622 -0.977134
-0.01683543 6.75763226 2.71259189 0 0 0 -0.999999 0.000978 0.000978
0.04801693 9.38688374 8.61160946 0 0 0 0.001162 -0.212622 -0.977134
-0.01925578 7.30070877 8.70053101 0 0 0 -0.999999 0.000978 0.000978
2.17144680 4.28416920 2.85112000 0 0 0 0.000978 0.999999 0.000978
-0.37365124 6.74477005 9.90674496 0 0 0 0.999999 0.000978 0.000978
-2.81794596 6.53254414 8.14084244 1 1 1 -0.999999 0.000978 0.000978
-4.36342812 10.08173180 4.75389957 0 0 0 0.000978 -0.999999 0.000978
4.25748110 11.09442043 12.74949646 0 0 0 0.001217 0.957524 0.288352
4.41042995 9.34822750 10.75956440 0 0 0 -0.977134 -0.212622 0.001162
-0.01683285 9.12203789 4.05523205 0 0 0 -0.999999 0.000978 0.000978
0.87072718 10.08173180 9.14408112 0 0 0 0.000978 -0.999999 0.000978
0.98000813 10.08173180 7.21836233 0 0 0 0.000978 -0.999999 0.000978
1.47383344 9.95356274 5.93704700 0 0 0 0.000978 0.000978 0.999999
-1.45466816 9.75940037 10.75547504 0 0 0 0.000978 0.000978 0.999999
-2.75198936 8.53834057 10.82745266 0 0 0 0.000978 0.000978 0.999999
-5.54520273 10.08173180 7.15431738 0 0 0 0.000978 -0.999999 0.000978
5.91361427 6.96116114 11.00885773 0 0 0 0.999999 0.000978 0.000978
5.91361570 7.79605484 9.68910503 0 0 0 0.999999 0.000978 0.000978
-1.85629368 9.95962334 10.77944851 0 0 0 0.000978 0.999999 0.000978
-1.11301744 7.61967945 6.00515795 0 0 0 0.000978 0.000978 0.999999
0.50554848 6.10574293 6.40125418 0 0 0 -0.072654 0.996550 -0.040122
-4.44277191 4.36006021 12.79896832 0 0 0 -0.067937 -0.994551 0.079074
3.66223931 9.48375320 10.75547791 0 0 0 0.000978 0.000978 0.999999
-0.39851856 4.28416872 4.31909370 0 0 0 0.000978 0.999999 0.000978
5.46333075 7.57208729 9.37055397 0 0 0 0.468736 0.001320 0.883337
-3.73990154 6.12366295 13.73163795 0 0 0 0.000978 0.999999 0.000978
-3.91655207 11.45840263 5.60187912 0 0 0 0.000978 -0.999999 0.000978
2.30383682 11.46491623 5.59483290 0 0 0 0.000978 0.999999 0.000978
0.08316565 7.07814789 12.40075970 0 0 0 0.999999 0.000978 0.000978
-0.01683467 7.40651035 3.16176867 0 0 0 -0.999999 0.000978 0.000978
1.39822710 12.20699024 5.73075056 0 0 0 0.262509 0.964929 0.001199
1.63959789 6.12352705 6.84281111 0 0 0 0.000978 0.999999 0.000978
1.02354670 11.70221138 5.39264154 0 0 0 0.000978 0.000978 -0.999999
5.77557087 6.12342310 9.71962357 0 0 0 0.000978 0.999999 0.000978
-0.14446197 9.89098454 10.79077435 0 0 0 0.000978 0.000978 -0.999999
5.91334248 5.32814360 5.32866478 0 0 0 0.989393 -0.108379 -0.096725
5.81361198 6.74137640 13.53593731 0 0 0 -0.999999 0.000978 0.000978
0.44996786 6.12355709 7.99766302 0 0 0 0.000978 0.999999 0.000978
1.47783339 6.12353134 6.06649685 0 0 0 0.000978 0.999999 0.000978
-1.24437141 12.22767448 7.14727497 0 0 0 -0.262509 0.964929 0.001199
-0.01683474 6.17388248 4.60038233 0 0 0 -0.999999 0.000978 0.000978
-1.54487801 4.28416872 10.17807961 0 0 0 0.000978 0.999999 0.000978
5.49528599 10.08173180 3.79818487 0 0 0 0.000978 -0.999999 0.000978
-5.34681177 9.71099567 4.85477543 0 0 0 0.001098 0.991141 -0.132811
0.07799911 6.10574293 11.67021942 0 0 0 -0.024063 0.986569 0.161564
-5.20874166 9.37504673 4.07855129 0 0 0 0.001098 -0.991141 0.132811
1.96765530 4.36006021 12.45719719 0 0 0 0.005265 -0.997187 0.074763
0.78550559 8.95168495 5.96606445 0 0 0 -0.977134 -0.212622 0.001162
-3.10052252 4.36006021 6.18811512 0 0 0 -0.026143 -0.998646 -0.044965
1.54108262 6.10574293 12.71237659 0 0 0 -0.038228 0.985829 0.163339
5.81361485 8.85652924 10.23403358 0 0 0 -0.999999 0.000978 0.000978
0.08074529 8.45024300 8.17063236 0 0 0 0.999999 0.000978 0.000978
0.15086079 4.28416872 8.24908924 0 0 0 0.000978 0.999999 0.000978
-1.46881187 6.15610075 10.63213921 0 0 0 0.999999 0.000978 0.000978
2.17002678 6.10574293 7.38556910 0 0 0 -0.121473 0.992580 0.005472
-5.15729666 6.36765337 6.00515461 0 0 0 0.000978 0.000978 0.999999
0.08316568 6.24472284 13.48791981 0 0 0 0.999999 0.000978 0.000978
-1.79932261 9.27984715 10.75548077 0 0 0 0.000978 0.000978 0.999999
-5.50603390 4.28416824 10.39819050 0 0 0 0.000978 0.999999 0.000978
3.49221110 11.63892365 6.35173368 0 0 0 0.262509 0.964929 0.001199
-5.62582254 9.61259651 11.61337662 0 0 0 0.001093 -0.991782 -0.127937
-1.06479895 7.37372112 6.00515747 0 0 0 0.000978 0.000978 0.999999
-0.11276289 7.04903936 9.83855152 0 0 0 0.000978 0.999999 0.000978
-2.33895469 10.89110756 13.42189598 0 0 0 0.001217 0.957524 0.288352
0.01522484 8.84545803 6.55292988 0 0 0 0.999999 0.000978 0.000978
2.68849683 6.10574293 8.50311470 0 0 0 -0.099722 0.991491 0.083675
-3.52027106 8.13366508 6.02880526 1 1 1 -0.140257 0.128061 -0.981799
-0.75639051 11.46491623 9.83249664 0 0 0 0.000978 0.999999 0.000978
-4.89896107 10.06927299 5.49235821 0 0 0 0.003789 0.935854 -0.352366
-0.92902327 4.28416777 13.92250538 0 0 0 0.000978 0.999999 0.000978
-0.94519377 6.10574293 12.16356564 0 0 0 -0.025905 0.990019 0.138535
3.80166173 6.10574293 11.15955257 0 0 0 -0.050922 0.965043 0.257096
-0.01925496 8.48045349 7.68302202 0 0 0 -0.999999 0.000978 0.000978
0.26950693 10.08173180 12.72796822 0 0 0 0.000978 -0.999999 0.000978
5.91361952 7.68037271 5.68070507 0 0 0 0.999999 0.000978 0.000978
-2.77167392 4.36006021 5.78673506 0 0 0 -0.021999 -0.998329 -0.053426
4.57170534 4.28416777 13.06342125 0 0 0 0.000978 0.999999 0.000978
5.45975828 10.92038441 4.86598778 0 0 0 0.420274 0.907321 0.011783
0.14778587 6.12356520 10.65108871 0 0 0 0.000978 0.999999 0.000978
1.27053189 11.46491623 7.27921581 0 0 0 0.000978 0.999999 0.000978
5.81361961 9.60447598 5.36729097 0 0 0 -0.999999 0.000978 0.000978
4.30570221 6.12346029 4.57115078 0 0 0 0.000978 0.999999 0.000978
5.86166811 8.10121250 3.98711848 0 0 0 -0.951115 -0.308835 0.001230
-3.25779915 10.95810509 3.69102716 0 0 0 0.001219 0.956644 -0.291258
3.32694173 11.04838562 3.98896527 0 0 0 0.001219 0.956644 -0.291258
-1.61065865 10.82264900 13.64830303 0 0 0 0.001217 0.957524 0.288352
-4.74047661 11.20584679 12.20851231 0 0 0 -0.420274 0.907321 -0.011783
-3.82499909 6.10574293 8.70002174 0 0 0 0.017424 0.999343 -0.031774
5.86201143 9.21335602 4.57932472 0 0 0 -0.001215 0.285453 0.958392
-2.02870011 6.12362003 9.94266510 0 0 0 0.000978 0.999999 0.000978
0.96453381 4.28416920 2.89810181 0 0 0 0.000978 0.999999 0.000978
-5.08090687 9.89170361 9.45579815 0 0 0 0.000978 0.999999 0.000978
-0.04327011 6.10574293 7.75386000 0 0 0 -0.068472 0.997586 -0.011588
-0.38340092 4.28416872 7.91482925 0 0 0 0.000978 0.999999 0.000978
2.03418684 6.12351751 3.39119196 0 0 0 0.000978 0.999999 0.000978
-2.32884431 6.10574293 9.22018337 0 0 0 -0.022971 0.999736 -0.000999
-1.97498298 12.02946854 5.99865294 0 0 0 -0.262509 0.964929 0.001199
-0.23071796 11.45840263 8.99925995 0 0 0 0.000978 -0.999999 0.000978
-1.44527054 9.29368496 10.75548077 0 0 0 0.000978 0.000978 0.999999
3.66528940 7.92555523 6.00516176 0 0 0 0.000978 0.000978 0.999999
-1.90180707 4.36006021 9.09057903 0 0 0 -0.017115 -0.999739 0.015102
3.94964218 8.21142864 6.00516129 0 0 0 0.000978 0.000978 0.999999
-5.54399490 7.20777369 6.00515413 0 0 0 0.000978 0.000978 0.999999
-2.66818428 10.87191677 13.48536587 0 0 0 0.001217 0.957524 0.288352
0.68235874 7.36976528 10.82745552 0 0 0 0.000978 0.000978 0.999999
-1.17673731 11.46491623 10.39976406 0 0 0 0.000978 0.999999 0.000978
3.37516594 6.10574293 6.25504160 0 0 0 -0.141417 0.989919 -0.007795
-0.63268799 6.10574293 10.54419136 0 0 0 -0.007662 0.992827 0.119314
5.81361818 9.35630608 6.78433371 0 0 0 -0.999999 0.000978 0.000978
-0.21026038 6.93608522 9.01993084 0 0 0 -0.003613 0.263727 -0.964591
-2.22092104 8.29054260 10.82745266 0 0 0 0.000978 0.000978 0.999999
-2.06078529 9.31859398 10.76776505 0 0 0 -0.977134 -0.212622 0.001162
-0.15820630 7.00183725 10.25973606 0 0 0 -0.066490 -0.254671 0.964739
-3.14581275 9.52282810 10.76899624 0 0 0 0.977134 -0.212622 0.001162
5.73333454 9.01524258 9.12047482 0 0 0 0.465583 0.001319 0.885003
6.04378080 6.24353170 5.99850368 0 0 0 0.000978 0.000978 0.999999
-3.93862629 6.22213745 5.19953489 0 0 0 -0.832674 0.001354 0.553762
4.20405626 6.60284090 6.00516176 0 0 0 0.000978 0.000978 0.999999
-1.85877335 8.60577488 5.93373108 0 0 0 0.000978 0.999999 0.000978
5.81361485 9.62200165 10.18013000 0 0 0 -0.999999 0.000978 0.000978
-0.19774866 11.62521076 11.49522972 0 0 0 0.000978 0.000978 0.999999
-1.61789429 6.12360954 10.71851063 0 0 0 0.000978 0.999999 0.000978
4.29591084 4.28416872 4.02632141 0 0 0 0.000978 0.999999 0.000978
1.03309703 6.12354279 11.81536674 0 0 0 0.000978 0.999999 0.000978
4.05795097 7.34331465 5.90516138 0 0 0 0.000978 0.000978 -0.999999
2.10522962 4.36006021 12.84237003 0 0 0 0.013829 -0.996717 0.079780
5.81361818 9.56522560 7.42075396 0 0 0 -0.999999 0.000978 0.000978
-3.00801373 10.80052948 3.17100143 0 0 0 0.001219 0.956644 -0.291258
5.40370607 6.22127867 7.50278759 0 0 0 0.468736 0.001320 -0.883337
-3.99429274 4.36006021 5.05379581 0 0 0 -0.033071 -0.997469 -0.062942
-3.20156956 4.28416920 3.42210460 0 0 0 0.000978 0.999999 0.000978
0.03802660 6.11725807 9.15038109 0 0 0 0.000978 -0.999999 0.000978
0.52734786 9.68798351 10.75547504 0 0 0 0.000978 0.000978 0.999999
1.43135595 4.36006021 9.62583256 0 0 0 0.011141 -0.999617 0.025320
-0.34615183 10.08173180 10.41515923 0 0 0 0.000978 -0.999999 0.000978
5.89300251 7.75250196 12.29885769 0 0 0 0.951115 0.308835 0.001230
-1.50501347 7.15371656 6.00515747 0 0 0 0.000978 0.000978 0.999999
1.52285790 4.36006021 9.29340935 0 0 0 0.013088 -0.999731 0.019129
4.35557652 4.28416824 9.22447681 0 0 0 0.000978 0.999999 0.000978
-3.36404800 6.42664814 10.18873310 0 0 0 -0.999999 0.000978 0.000978
1.52065420 6.12353039 12.28636742 0 0 0 0.000978 0.999999 0.000978
-2.84070039 4.36006021 12.54055309 0 0 0 -0.049196 -0.995937 0.075433
-0.13279316 6.36220169 7.57461309 0 0 0 0.000978 0.000978 0.999999
5.91326904 4.55414391 2.78405619 0 0 0 0.989662 -0.101414 -0.101414
-1.17362118 4.28416777 13.33018494 0 0 0 0.000978 0.999999 0.000978
1.61018109 6.12352800 8.10860825 0 0 0 0.000978 0.999999 0.000978
0.04020776 9.17152882 7.64776754 0 0 0 0.001162 -0.212622 0.977134
-2.64116335 9.22792625 5.96734381 0 0 0 -0.977134 0.212622 0.001162
-4.25798368 4.28416967 2.89728165 0 0 0 0.000978 0.999999 0.000978
-4.16518021 6.10574293 8.20985317 0 0 0 0.030507 0.998311 -0.049442
-5.22970486 4.36006021 5.54158449 0 0 0 -0.046162 -0.997312 -0.056897
3.64615154 9.51529408 10.79077244 0 0 0 0.000978 0.000978 -0.999999
0.08316580 6.31688499 13.60459137 0 0 0 0.999999 0.000978 0.000978
0.01522812 9.84200287 9.85816288 0 0 0 0.999999 0.000978 0.000978
-2.43097758 11.46491623 6.09508657 0 0 0 0.000978 0.999999 0.000978
-5.73000765 6.43362999 10.73395157 0 0 0 -0.999999 0.000978 0.000978
-2.75562549 6.12363815 8.19335651 0 0 0 0.000978 0.999999 0.000978
5.34244919 4.28416777 11.14935684 0 0 0 0.000978 0.999999 0.000978
5.75097799 8.21647358 6.00516319 0 0 0 0.000978 0.000978 0.999999
5.81361198 8.19773769 13.37542820 0 0 0 -0.999999 0.000978 0.000978
5.91361856 9.45847607 7.34913349 0 0 0 0.999999 0.000978 0.000978
-0.53316355 4.36006021 6.59144115 0 0 0 -0.005083 -0.999279 -0.037613
2.40329838 6.12350798 2.87423372 0 0 0 0.000978 0.999999 0.000978
1.81578875 11.45840263 7.55151796 0 0 0 0.000978 -0.999999 0.000978
4.53324556 4.28416824 7.08787251 0 0 0 0.000978 0.999999 0.000978
-2.94893861 11.45840263 8.51880836 0 0 0 0.000978 -0.999999 0.000978
-2.78455281 7.72199249 6.00515652 0 0 0 0.000978 0.000978 0.999999
-1.76230609 11.46491623 6.12786341 0 0 0 0.000978 0.999999 0.000978
2.36966014 11.10672665 12.70879841 0 0 0 0.001217 0.957524 0.288352
