//X Y Z R G B
1123
1.42154109 -7.52210236 -4.96144962 72 0 0
-0.12722351 -5.9570713 -4.96728182 106 0 0
2.06967187 -6.4270196 -4.96106625 156 0 0
0.31040394 -2.05350375 -4.9759903 130 0 0
-1.87718129 -3.01446152 -4.98441172 152 0 0
0.34269062 -2.09376717 -4.98495102 124 0 0
2.24052644 -4.31397867 -4.96280336 76 0 0
1.25780678 -5.63705492 -4.96637678 170 0 0
0.02676205 -6.26945066 -4.94204283 85 0 0
2.06881714 -6.54333019 -4.96082354 162 0 0
0.19568078 -2.34842277 -4.97221708 77 0 0
2.08431005 -6.49723482 -4.96530962 92 0 0
2.08042407 -6.51975107 -4.96348667 106 0 0
0.3347325 -4.57177067 -4.96579266 142 0 0
1.7827996 -7.28355646 -4.96387577 122 0 0
-1.89921653 -3.16961193 -4.96673727 162 0 0
0.23771007 -4.88418818 -4.96219969 83 0 0
-1.89862812 -3.21721768 -4.96425915 141 0 0
2.07549977 -6.56505013 -4.96142769 110 0 0
-1.85099232 -3.20322514 -4.96395826 100 0 0
-1.83535981 -5.62799215 -4.96270561 88 0 0
-0.90505892 -6.58733368 -4.95348215 77 0 0
-1.8492775 -5.64450026 -4.96382236 85 0 0
2.05639577 -6.66797209 -4.96257496 112 0 0
1.78342378 -7.53782463 -4.95596981 87 0 0
2.05790114 -6.72728777 -4.96282339 99 0 0
0.29516953 -6.31297541 -4.96249628 186 0 0
-1.51979351 -7.47652435 -4.95324945 126 0 0
0.72616625 -2.59089828 -4.95902967 138 0 0
0.3438862 -5.03408337 -4.97001314 109 0 0
-1.89218879 -3.78201652 -4.97364998 152 0 0
-1.73882306 -5.91619635 -4.96377277 130 0 0
2.21925092 -6.44869709 -4.95727253 68 0 0
0.32382029 -5.27827263 -4.95056248 135 0 0
0.33749101 -5.324512 -4.96077108 131 0 0
-1.85138464 -3.59706426 -4.97055054 124 0 0
-1.28279793 -7.66595173 -4.95341778 99 0 0
2.07944274 -6.79565525 -4.96165419 117 0 0
-1.13664067 -7.66676998 -4.95172691 94 0 0
2.08517861 -6.86390209 -4.96350527 80 0 0
-1.90963674 -4.28670454 -4.96147394 154 0 0
0.29253981 -2.73682046 -4.97902584 87 0 0
2.11628485 -5.18782187 -4.96596098 0 0 122
1.98673868 -7.04686022 -4.95879936 137 0 0
2.15130472 -5.16718864 -4.96625423 0 0 110
1.9893688 -5.3526125 -4.96517897 0 65 0
1.99786091 -5.33129263 -4.96561432 56 0 0
2.03351331 -5.31099987 -4.96056557 102 0 0
0.05533151 -1.25474465 -4.97458124 79 0 0
0.04912319 -1.32345879 -4.98144817 75 0 0
0.55915403 -3.37692046 -4.97642899 179 0 0
2.17568254 -7.0408392 -4.95628929 112 0 0
0.94455618 -2.73524427 -4.96958208 122 0 0
2.01479077 -7.23999166 -4.95698357 124 0 0
1.9388299 -7.31929016 -4.96496296 98 0 0
2.07776785 -7.65077639 -4.95857859 66 0 0
-1.34621072 -5.19790077 -4.96437597 99 0 0
0.30550715 -3.67620134 -4.96812344 147 0 0
-0.82176828 -5.19385576 -4.9644618 86 0 0
0.00565986 -2.54798102 -4.97426701 136 0 0
2.18139148 -7.60640049 -4.95237732 0 0 74
-1.46190929 -5.55796051 -4.95335674 105 0 0
-1.57643342 -5.71018267 -4.95953035 130 0 0
-1.5801692 -2.86131048 -4.96274519 83 0 0
0.3076632 -4.1712203 -4.97230053 148 0 0
0.2979289 -4.25143957 -4.95919085 171 0 0
0.30485332 -4.33228827 -4.96857262 176 0 0
-1.8576138 -2.51575232 -4.98058367 93 0 0
1.27589822 -1.64333892 -4.9750042 90 0 0
-1.79398131 -7.55316162 -4.96208191 92 0 0
-1.9053359 -5.53622103 -4.96347809 118 0 0
-1.91185272 -0.53005469 -4.9721489 91 0 0
1.41692054 -5.20492983 -4.96440315 132 0 0
-0.30787927 -5.69171143 -4.94515514 106 0 0
1.90488231 -4.93086576 -4.96968651 138 0 0
-0.26277009 -5.77712345 -4.96244621 97 0 0
-1.85836577 -0.50368905 -4.97864723 93 0 0
-1.80625558 -0.50966448 -4.98387241 113 0 0
-0.02920934 -5.63608456 -4.95375156 159 0 0
2.05155039 -2.32289505 -4.96318674 91 0 0
0.05109054 -1.83511448 -4.96929264 76 0 0
1.96687829 -2.41692424 -4.97020769 92 0 0
2.07348013 -5.30792093 -4.96716738 0 0 127
0.00824293 -2.1142683 -4.97044468 84 0 0
0.04093305 -2.04375863 -4.97664833 80 0 0
0.31655812 -2.06479287 -4.98011398 135 0 0
2.13430476 -5.27225256 -4.96554995 0 0 140
1.20001924 -5.47126818 -4.95016909 82 0 0
0.36194044 -2.11995268 -4.98230171 134 0 0
2.03960514 -2.78091621 -4.97925901 186 0 0
1.37639701 -5.4806366 -4.96412659 108 0 0
0.430953 -2.21030736 -4.9769783 121 0 0
2.06534624 -5.31992149 -4.96521282 0 110 0
0.45861602 -2.25737119 -4.96608829 125 0 0
-0.07828632 -6.01221752 -4.9629221 100 0 0
-0.08400837 -2.65567946 -4.97155714 129 0 0
-0.0552716 -2.62891483 -4.97662354 169 0 0
-1.879022 -7.02857494 -4.96303368 123 0 0
2.23988104 -2.84388328 -4.97369671 86 0 0
-0.70748276 -0.52360427 -4.97855949 115 0 0
-0.95776457 -6.60628271 -4.96197224 69 0 0
-0.46265578 -0.55269068 -4.97841787 88 0 0
2.19244146 -5.15568352 -4.96847296 109 0 0
2.20880675 -5.13157463 -4.96454382 142 0 0
2.12847972 -3.55370927 -4.97680712 161 0 0
-0.08370906 -0.5901258 -4.98849344 161 0 0
-0.08088528 -0.62710524 -4.96331263 124 0 0
0.81581348 -2.69226003 -4.96656322 129 0 0
0.28477171 -6.29707527 -4.95173264 149 0 0
2.21856356 -3.21144152 -4.96449184 139 0 0
-1.48452401 -7.50655413 -4.96285486 178 0 0
2.24126387 -3.6673491 -4.95689297 85 0 0
-1.64031661 -4.85877991 -4.96529007 128 0 0
-1.21264255 -7.66391277 -4.95540237 101 0 0
2.24560452 -3.94219613 -4.95627499 69 0 0
2.23511672 -4.2142477 -4.96737337 75 0 0
2.08406925 -5.41209078 -4.96427345 98 0 0
2.10010815 -5.42089796 -4.96637297 99 0 0
2.07675099 -5.43529463 -4.96541357 125 0 0
0.30873409 -4.52886724 -4.97170591 174 0 0
2.10111642 -5.50265265 -4.96657562 0 0 159
-0.12319395 -7.1683712 -4.95047474 93 0 0
0.01629065 -6.90026665 -4.95999861 95 0 0
0.29229289 -7.41755438 -4.94608736 88 0 0
0.0197997 -6.93715429 -4.95666933 98 0 0
0.56493449 -2.93481231 -4.96382189 71 0 0
2.20730734 -5.45786476 -4.96971035 94 0 0
2.21907425 -5.46131134 -4.96184969 138 0 0
2.20477128 -5.49535275 -4.97016239 76 0 0
0.55225062 -4.84164476 -4.96590281 158 0 0
-1.47715163 -5.56789541 -4.94853115 155 0 0
-0.48432127 -3.03573561 -4.97794104 81 0 0
2.17335653 -5.61558676 -4.9672637 0 0 135
2.16840458 -5.62550688 -4.96211529 189 0 0
-1.8840158 -1.86886394 -4.97588015 129 0 0
0.35775369 -7.66625738 -4.95663357 98 0 0
2.22713494 -5.64105606 -4.95417643 105 0 0
-1.53423476 -5.666152 -4.9620862 123 0 0
2.22598839 -5.67044115 -4.95185137 109 0 0
0.61382246 -7.40962505 -4.94842052 117 0 0
2.1237638 -6.02314854 -4.96130133 79 0 0
-1.24260986 -5.45382071 -4.96732998 82 0 0
-1.69556916 -2.29113317 -4.97125006 106 0 0
2.22580695 -6.32054234 -4.95151234 67 0 0
-0.9040029 -5.45689869 -4.96572971 89 0 0
0.97325146 -2.73224783 -4.97211695 116 0 0
0.89505076 -3.00603271 -4.96998644 117 0 0
0.87372828 -2.99484706 -4.95793819 140 0 0
1.01433647 -7.65627956 -4.95949984 124 0 0
-1.88676083 -2.71702623 -4.97503281 131 0 0
-0.05646292 -7.51670837 -4.95318556 98 0 0
-1.88700426 -2.84590983 -4.97506714 127 0 0
2.06203794 -6.5997386 -4.95958567 137 0 0
-1.89534807 -2.97205758 -4.96535778 145 0 0
1.0688777 -7.65697098 -4.95975685 127 0 0
2.07430744 -6.69048548 -4.96068048 137 0 0
-0.31283319 -4.94842386 -4.97168541 85 0 0
-1.69985795 -3.013412 -4.96710825 101 0 0
-1.68021202 -2.9963975 -4.96250534 105 0 0
-0.18671571 -4.79757309 -4.97129202 90 0 0
0.30441877 -4.05870724 -4.96911526 167 0 0
2.08884549 -6.73030472 -4.96729326 89 0 0
0.24035227 -5.75204945 -4.96821785 109 0 0
1.0919224 -3.01096511 -4.97008514 149 0 0
2.2092464 -6.68787289 -4.96118689 97 0 0
0.62013465 -0.85318857 -4.9846611 150 0 0
0.0329115 -3.91143298 -4.97295713 90 0 0
-1.6499691 -3.35001111 -4.97222805 156 0 0
2.07320738 -6.78269529 -4.96126509 129 0 0
1.66137838 -7.6545248 -4.96550846 96 0 0
-0.14782408 -5.18376732 -4.95989895 139 0 0
0.90338165 -0.53894567 -4.97937679 95 0 0
0.50582105 -5.45218754 -4.95848179 101 0 0
-0.08103921 -5.11626244 -4.9671917 144 0 0
2.13201833 -4.67337942 -4.95484686 81 0 0
-0.23165928 -5.28066969 -4.96244574 133 0 0
0.03916089 -4.35845995 -4.96062565 73 0 0
1.53898203 -2.74960756 -4.95704126 87 0 0
1.17356324 -0.53850824 -4.97259998 110 0 0
2.06628537 -6.87401819 -4.95949841 128 0 0
1.68374836 -2.7391367 -4.97426844 117 0 0
2.06045222 -6.90563536 -4.96143389 102 0 0
1.30173409 -0.55619156 -4.98848104 173 0 0
2.07894683 -6.91477108 -4.96146393 133 0 0
2.17348528 -4.61181021 -4.95888758 88 0 0
-1.89668548 -4.24713182 -4.97145081 158 0 0
1.77025318 -3.09553933 -4.97082901 100 0 0
0.01284493 -5.23460197 -4.95569134 68 0 0
2.02628684 -5.27108192 -4.96172476 61 0 0
2.04453397 -5.29570341 -4.96136904 98 0 0
1.84646404 -0.72319001 -4.98728657 98 0 0
1.85896051 -0.72580791 -4.9743824 87 0 0
2.01655936 -7.01856518 -4.95891285 130 0 0
-0.72383207 -5.43860149 -4.95239353 103 0 0
-1.85990381 -4.99595261 -4.9702301 87 0 0
-0.46283644 -5.52142811 -4.96640587 84 0 0
0.05047291 -1.23828387 -4.98120642 76 0 0
-1.67106414 -5.22919703 -4.95804644 82 0 0
1.21310949 -5.22338676 -4.94197655 132 0 0
1.22518563 -5.21483326 -4.95213175 94 0 0
1.23246312 -5.21120214 -4.95650911 91 0 0
2.20877457 -6.81489706 -4.95963812 91 0 0
2.12771606 -7.61138678 -4.95544672 0 0 72
2.16868448 -7.56381321 -4.95866537 0 0 68
2.18014145 -7.59183073 -4.95405769 0 0 69
-0.14955612 -5.45593309 -4.96847534 142 0 0
-0.16227522 -5.47389412 -4.95074558 128 0 0
-1.91749609 -0.55669463 -4.96793699 92 0 0
-1.91068733 -5.63066912 -4.95814323 130 0 0
2.06133699 -5.35779095 -4.96549511 119 0 0
0.04556445 -1.59428358 -4.98107386 89 0 0
-0.29971421 -2.50401831 -4.96197128 84 0 0
0.31375653 -1.54373753 -4.97306871 118 0 0
0.31945708 -1.57138717 -4.98266983 121 0 0
-1.9073391 -6.27206087 -4.96870184 135 0 0
-1.84982634 -6.04903412 -4.9608283 118 0 0
0.30689105 -1.72374463 -4.96913004 139 0 0
0.0551049 -5.73245811 -4.9601965 224 0 0
2.10441589 -5.28629923 -4.96476746 0 0 140
2.10877061 -2.68049264 -4.96726656 150 0 0
2.11553073 -5.2084341 -4.95835829 137 0 0
0.3148444 -1.98988974 -4.98101187 146 0 0
1.31261265 -5.48159599 -4.96410465 114 0 0
-1.88262951 -6.08901834 -4.96139097 129 0 0
0.39477521 -2.19664049 -4.95627689 119 0 0
1.57866192 -5.47618675 -4.96060658 91 0 0
2.12051797 -5.32101917 -4.96683979 0 89 0
-0.24965549 -2.4259882 -4.97840548 81 0 0
-1.91910326 -6.47153044 -4.96034384 125 0 0
0.01466276 -6.15436459 -4.9643836 95 0 0
0.02292666 -6.15761757 -4.95078087 79 0 0
0.2356002 -2.39746809 -4.97313547 80 0 0
-1.91582751 -6.62945747 -4.96264982 141 0 0
1.95980573 -2.85466146 -4.95986986 141 0 0
0.48646486 -2.29666615 -4.95962429 129 0 0
0.52164191 -2.33316755 -4.96444988 120 0 0
0.29126033 -6.40514708 -4.95981312 167 0 0
-1.90803277 -6.9535327 -4.96635628 122 0 0
2.16383815 -5.22050428 -4.96845293 120 0 0
-0.85125113 -0.51405764 -4.96619415 121 0 0
-1.63504064 -7.32158041 -4.96192884 159 0 0
-1.86715055 -7.05460978 -4.95473146 146 0 0
-0.01077683 -2.54554296 -4.95881033 204 0 0
0.47255608 -2.69860387 -4.97391319 87 0 0
2.20598888 -5.31972218 -4.9657259 141 0 0
2.21670246 -5.39983273 -4.96395874 160 0 0
-0.44113928 -0.57145435 -4.9715333 94 0 0
-1.62864375 -2.94135737 -4.95883799 93 0 0
-1.61606586 -2.91924691 -4.96482277 103 0 0
2.20835733 -5.4175787 -4.96913242 100 0 0
-1.92630768 -7.63313341 -4.95748568 143 0 0
0.41435629 -7.16407108 -4.95105886 129 0 0
-1.64610624 -4.87442589 -4.95368242 116 0 0
-1.60177195 -4.92567635 -4.95403814 120 0 0
-1.57050133 -4.96801949 -4.95338535 114 0 0
-1.88520157 -1.20442164 -4.97919798 117 0 0
-1.90893745 -1.21240461 -4.9618516 91 0 0
-1.90184748 -1.26803041 -4.96545792 117 0 0
-1.89835858 -1.24381649 -4.97013712 91 0 0
-0.96087581 -2.74444008 -4.96084213 95 0 0
2.21626639 -6.23872662 -4.96420527 110 0 0
-1.61981761 -5.34023142 -4.97018003 114 0 0
-0.40034637 -7.49912977 -4.96069002 113 0 0
-0.35649398 -7.44382143 -4.96171761 111 0 0
0.47325742 -3.04490113 -4.96653605 86 0 0
-0.70081049 -2.74428749 -4.9621172 80 0 0
-0.64039016 -7.66692638 -4.95623255 104 0 0
0.31502602 -3.22128582 -4.98071575 100 0 0
0.72712064 -7.51578712 -4.96691322 129 0 0
2.06873631 -6.75013256 -4.9601202 151 0 0
0.76676118 -7.57884264 -4.95742941 164 0 0
-0.64462811 -2.99871349 -4.96585703 103 0 0
-0.60642755 -2.98342133 -4.95254278 108 0 0
-1.89568245 -2.00102091 -4.96388149 110 0 0
0.41632393 -4.68764067 -4.95181227 145 0 0
0.15499662 -5.15356159 -4.96484041 0 0 82
2.04490709 -7.18308067 -4.96724796 60 0 0
0.49142024 -3.4389708 -4.96310186 149 0 0
0.50678605 -3.42731071 -4.96801043 160 0 0
-1.89296544 -2.46536827 -4.96160269 105 0 0
2.08184218 -7.16431332 -4.95405054 97 0 0
1.29322147 -6.56130648 -4.95751524 79 0 0
2.08646989 -7.13171911 -4.96540737 48 0 0
-0.21026382 -2.80927753 -4.96730566 152 0 0
-1.54047108 -5.65304422 -4.95056772 108 0 0
0.00738107 -7.43318176 -4.95150185 94 0 0
2.18974233 -7.00887203 -4.96341133 121 0 0
1.36500061 -7.66571045 -4.95792484 91 0 0
0.15529381 -0.53500581 -4.97176552 110 0 0
-0.11678389 -3.07043433 -4.95554733 127 0 0
-1.87978184 -2.7614572 -4.98008823 143 0 0
0.54060662 -5.39809084 -4.96568012 107 0 0
0.5981406 -4.91988659 -4.94749737 159 0 0
0.31854492 -3.64738154 -4.96014357 190 0 0
0.29196393 -0.79778612 -4.98847961 106 0 0
0.29877275 -4.10023594 -4.96051788 159 0 0
0.09319117 -3.02306557 -4.98432922 0 61 0
-0.20942317 -3.35325527 -4.96071768 106 0 0
-0.11210755 -3.48124433 -4.96512175 106 0 0
2.198102 -7.59182358 -4.95732641 59 0 0
-1.72177136 -3.43894839 -4.97159529 135 0 0
1.25645149 -3.00314999 -4.96360254 119 0 0
-1.70571899 -3.39423442 -4.95787191 112 0 0
-0.04228181 -3.57179308 -4.96774721 97 0 0
0.02060425 -3.6379559 -4.95702124 103 0 0
-0.19842429 -5.26662064 -4.97197199 124 0 0
-0.2651276 -5.31870985 -4.96234751 147 0 0
1.51517308 -0.5442124 -4.96869135 131 0 0
1.51312208 -0.56379622 -4.98756695 182 0 0
0.04076538 -3.8257308 -4.96058178 90 0 0
0.28367913 -6.21591806 -4.95030069 146 0 0
0.03167509 -4.05810547 -4.97226238 98 0 0
2.07135797 -0.55869532 -4.97736454 126 0 0
2.11219668 -0.56479639 -4.98331356 183 0 0
0.78194016 -5.53514385 -4.948349 130 0 0
-1.58940315 -2.42763376 -4.96817255 116 0 0
-1.44071674 -2.61950922 -4.96734381 117 0 0
-1.90596676 -5.04872227 -4.95978403 143 0 0
-1.90336454 -5.21945286 -4.9630065 128 0 0
0.16912344 -0.9277758 -4.96749401 101 0 0
-1.79345703 -5.07779217 -4.96650362 82 0 0
2.25236154 -1.53003657 -4.97206783 96 0 0
-1.74134696 -7.59109545 -4.94201088 104 0 0
0.25849912 -3.31120062 -4.95960522 78 0 0
0.30950809 -4.54099512 -4.96685791 124 0 0
0.2871742 -3.27824306 -4.96088791 87 0 0
0.20264472 -3.37204862 -4.96886015 76 0 0
0.59047979 -3.33547425 -4.97309113 181 0 0
0.03373419 -4.29814672 -4.96960735 86 0 0
-0.03375774 -4.63805771 -4.95325089 93 0 0
-0.03410063 -1.07408261 -4.9665556 94 0 0
0.72413367 -3.15856147 -4.96192598 146 0 0
0.18266046 -5.15862608 -4.9581809 98 0 0
0.03981701 -1.34471619 -4.9921608 92 0 0
0.04220578 -1.35539699 -4.98893261 88 0 0
1.85920393 -7.42435932 -4.95923185 121 0 0
-1.43104303 -0.64297068 -4.98292494 147 0 0
0.36414379 -5.05839348 -4.96958065 118 0 0
0.70238799 -0.73847711 -4.97274733 113 0 0
-1.90496433 -5.08494329 -4.96022797 123 0 0
0.68178231 -3.21790385 -4.96858263 174 0 0
0.0171225 -4.98269892 -4.95711517 146 0 0
0.60719627 -3.31806636 -4.97544193 185 0 0
0.85779756 -0.55865574 -4.97821522 118 0 0
-0.07604335 -5.09816885 -4.96072388 152 0 0
2.16450334 -4.62996769 -4.95497179 84 0 0
0.03937499 -2.06778455 -4.97593546 80 0 0
-0.79639709 -0.53029466 -4.98630047 101 0 0
1.31974101 -0.54572636 -4.97596455 111 0 0
-1.71442401 -5.18150902 -4.96435785 80 0 0
1.97648823 -4.86867237 -4.95424747 83 0 0
1.94734633 -4.90356159 -4.95510387 85 0 0
0.74860924 -5.09150982 -4.96264553 178 0 0
-0.02020164 -5.31634617 -4.9598999 44 0 0
-1.90770841 -5.67015362 -4.95876884 113 0 0
-0.38848859 -0.66226214 -4.99196815 114 0 0
0.10822955 -2.40229654 -4.96283627 162 0 0
2.06963325 -0.57562721 -4.96884394 137 0 0
1.48520303 -2.73701048 -4.97391748 120 0 0
1.48826396 -2.74888062 -4.957335 81 0 0
1.982921 -5.36137152 -4.96423244 0 0 152
2.07182217 -5.21560717 -4.96291256 0 0 157
-1.76184106 -5.93926382 -4.96060467 124 0 0
1.67856169 -2.74815297 -4.96050024 78 0 0
0.09337173 -0.82056534 -4.97950077 99 0 0
-1.38219142 -3.00390005 -4.95828199 109 0 0
-1.88878918 -1.17605674 -4.97024155 125 0 0
-0.08945782 -5.55825186 -4.95680618 177 0 0
-1.56451142 -3.23610926 -4.96677256 160 0 0
-1.93105876 -6.63049459 -4.94951439 131 0 0
0.0458135 -5.47213078 -4.96022511 66 0 0
-1.9380914 -6.88670492 -4.93891859 64 0 0
-1.18491781 -2.7349875 -4.9715457 79 0 0
0.08687054 -5.74098921 -4.97417688 0 0 108
2.24595571 -1.26777029 -4.98239565 99 0 0
-1.07805657 -2.98498607 -4.95731306 94 0 0
-1.00381207 -3.00902534 -4.98212528 105 0 0
-0.90824568 -2.73891664 -4.96737099 83 0 0
-1.90164435 -1.71821594 -4.9631958 124 0 0
1.9433682 -5.78939819 -4.95557499 69 0 0
-0.02049003 -6.07275963 -4.95408869 82 0 0
0.30249611 -1.9536643 -4.96283197 176 0 0
-1.88708758 -1.83531332 -4.97314453 120 0 0
2.25389719 -1.7247088 -4.96610165 114 0 0
1.00733888 -5.48344755 -4.96530151 97 0 0
-1.88199615 -1.96284747 -4.97814417 116 0 0
2.1529355 -5.61720657 -4.95518875 108 0 0
-1.69621587 -7.26307821 -4.95211935 142 0 0
2.24591208 -1.8440026 -4.97775126 96 0 0
1.33085155 -5.21093702 -4.95665121 106 0 0
-1.91145253 -2.52528 -4.95123768 120 0 0
-1.9017117 -2.55346155 -4.95914221 105 0 0
1.54871249 -5.20589399 -4.96510649 129 0 0
-1.72538543 -7.64851999 -4.95623255 87 0 0
-0.41916355 -3.10195422 -4.96718311 84 0 0
0.35949767 -2.55023003 -4.97089577 92 0 0
-1.66384852 -2.35150743 -4.96066093 114 0 0
-1.6762836 -2.33680892 -4.96034145 101 0 0
2.22412682 -6.25462866 -4.956563 64 0 0
-0.24653175 -2.87248683 -4.97794867 197 0 0
-1.0292083 -7.66202879 -4.95844936 102 0 0
-1.60088992 -5.34490776 -4.9541316 85 0 0
-1.44668913 -5.11018324 -4.96065378 142 0 0
0.02276726 -6.37272739 -4.94563007 89 0 0
0.8045705 -2.67981625 -4.96556616 125 0 0
0.01609325 -6.62993431 -4.95835352 107 0 0
2.08894968 -3.06463361 -4.96077538 133 0 0
1.29613817 -1.67549157 -4.97556877 93 0 0
2.13066292 -3.11423659 -4.95904016 121 0 0
-1.00250793 -5.19702959 -4.9560523 97 0 0
1.72248924 -2.7343843 -4.95337152 85 0 0
1.8428849 -5.6632185 -4.95814991 83 0 0
1.85721445 -2.55525565 -4.9704423 83 0 0
1.91555071 -5.76427317 -4.9632535 89 0 0
2.2074213 -6.9797492 -4.95719671 97 0 0
2.00375462 -7.27274942 -4.94762421 80 0 0
-1.8146795 -3.16598988 -4.95897722 92 0 0
2.23903584 -3.12431479 -4.96727419 84 0 0
-1.80696952 -3.51546955 -4.95581627 100 0 0
-0.28752813 -3.24838948 -4.95715094 114 0 0
2.14136624 -7.57347012 -4.95600128 0 0 72
2.10336518 -7.66684055 -4.94461298 161 0 0
2.15099525 -7.52754307 -4.94690704 84 0 0
2.23171759 -3.16479778 -4.97102499 92 0 0
2.23959851 -3.20519114 -4.96304083 107 0 0
0.38647732 -7.13367701 -4.94922447 142 0 0
-0.51047516 -7.64538622 -4.96119976 97 0 0
2.20649004 -7.50481319 -4.95029259 110 0 0
-1.90112531 -4.06702852 -4.96807575 198 0 0
0.58745319 -2.89607882 -4.97205067 79 0 0
0.29743409 -7.42962456 -4.94981384 74 0 0
-1.91309679 -4.29579258 -4.95577145 144 0 0
2.24001956 -4.15877151 -4.96262455 71 0 0
0.4752942 -7.23066139 -4.95706463 187 0 0
-0.89261192 -1.59781373 -4.98754597 89 0 0
0.32994273 -7.49707842 -4.96953773 107 0 0
0.41896677 -7.58251476 -4.94957876 82 0 0
0.2507903 -7.67033815 -4.95248604 100 0 0
0.30026948 -7.6701107 -4.95242071 97 0 0
0.21772073 -0.53772843 -4.97445822 102 0 0
-0.3185713 -4.987041 -4.94803858 87 0 0
0.29663187 -4.48859501 -4.9577136 146 0 0
-1.9197309 -0.69469059 -4.96228504 99 0 0
0.80198282 -7.63066673 -4.95046329 129 0 0
0.42751077 -0.64862573 -4.98062134 112 0 0
-1.7874378 -0.49885127 -4.97399712 82 0 0
0.47059211 -0.59687191 -4.98187733 108 0 0
0.43380651 -3.51439571 -4.96442318 155 0 0
0.61108774 -2.86019278 -4.95674706 75 0 0
-0.1311505 -4.73571587 -4.96897221 89 0 0
0.49711981 -4.78063965 -4.96050787 135 0 0
-1.83346879 -4.59758234 -4.97735786 122 0 0
-0.01029093 -4.6136241 -4.95048666 94 0 0
0.63087177 -0.81428093 -4.96490669 154 0 0
0.76270682 -3.10178685 -4.95457172 168 0 0
0.06393131 -4.91787195 -4.95237541 145 0 0
-1.68618751 -4.80484581 -4.96223068 158 0 0
0.32466686 -5.29494524 -4.94925451 144 0 0
1.43676865 -7.67641973 -4.94471455 90 0 0
0.94754332 -3.00411487 -4.96669006 116 0 0
1.89179349 -7.40330458 -4.95124769 82 0 0
1.02568686 -3.00220466 -4.96374559 106 0 0
-1.88388467 -5.01196814 -4.97887278 101 0 0
-1.36554909 -0.54380596 -4.97013092 130 0 0
1.72011626 -7.62092113 -4.95060968 78 0 0
-1.9097383 -5.15533733 -4.9573679 154 0 0
0.44249088 -5.13929224 -4.95870113 91 0 0
1.84267414 -7.46233749 -4.95116758 85 0 0
1.81549597 -7.50126457 -4.95040894 83 0 0
1.51597691 -7.668293 -4.95280647 89 0 0
0.55757135 -5.39125109 -4.95966434 103 0 0
0.30572766 -3.88871384 -4.9726162 154 0 0
-1.7496016 -5.1318717 -4.96357107 83 0 0
-0.63500583 -0.52657324 -4.97774982 98 0 0
1.76085055 -0.59594524 -4.96874332 79 0 0
-1.90186667 -5.47925425 -4.96570396 119 0 0
-0.27743965 -2.48080564 -4.95782614 88 0 0
-0.20354936 -2.36928892 -4.97913742 91 0 0
0.18896364 -5.50651979 -4.95394039 104 0 0
-1.80163157 -5.58982086 -4.95882273 82 0 0
-1.75467265 -5.52249193 -4.96594381 92 0 0
2.24855494 -0.6556316 -4.98037481 134 0 0
1.97381759 -5.33520508 -4.9623847 0 0 155
2.24534988 -0.69446528 -4.98328018 162 0 0
0.39012155 -5.58116102 -4.96073675 110 0 0
1.44379652 -3.00702643 -4.96660328 115 0 0
-1.6381079 -2.80291486 -4.98066139 83 0 0
0.08685027 -0.8317914 -4.96532393 133 0 0
-0.22376519 -5.8172884 -4.95464039 84 0 0
-1.42759371 -3.07801008 -4.97042465 167 0 0
2.21784377 -5.05376101 -4.96059704 166 0 0
0.45949078 -5.92173004 -4.94635296 129 0 0
-1.75682294 -1.02023375 -4.97262859 127 0 0
-1.78837502 -1.04919326 -4.96998358 103 0 0
2.22249126 -5.13882303 -4.95771313 109 0 0
2.2132206 -5.16054916 -4.96132755 194 0 0
2.23571706 -5.2682333 -4.94664145 103 0 0
-1.93718243 -6.93128729 -4.94214296 89 0 0
0.31465238 -1.67710865 -4.97921085 137 0 0
0.80141282 -5.52158165 -4.9560957 138 0 0
-1.53885126 -3.18003392 -4.9498601 113 0 0
-0.00698127 -5.6674304 -4.95229053 147 0 0
-1.89395273 -1.62894976 -4.96881628 118 0 0
0.31146857 -2.00927496 -4.97691441 130 0 0
0.6804617 -5.66035461 -4.95147562 127 0 0
-1.75324368 -7.19214201 -4.95297289 127 0 0
0.1255908 -5.84336853 -4.94839668 184 0 0
0.10722066 -5.82295799 -4.94737101 199 0 0
-0.21464312 -5.82633495 -4.95253325 83 0 0
-0.20275912 -5.85252571 -4.96419048 91 0 0
-1.93474579 -7.40405464 -4.94904518 87 0 0
-1.89186656 -1.77877593 -4.97121191 115 0 0
-1.93384242 -7.45759439 -4.95100498 125 0 0
0.972767 -5.47205591 -4.95246077 78 0 0
1.06966376 -5.21459961 -4.95411396 85 0 0
-0.82023364 -2.74095845 -4.96499062 84 0 0
-1.87655962 -2.05977345 -4.97212076 94 0 0
-0.93023127 -3.00098825 -4.97153234 97 0 0
0.01432836 -6.16679811 -4.96490812 90 0 0
0.22279608 -2.36801887 -4.96202707 99 0 0
1.40007138 -5.21964598 -4.94961262 112 0 0
-0.95219487 -6.56086445 -4.95937538 69 0 0
2.18820572 -1.12948 -4.9671402 97 0 0
2.25809169 -1.21526718 -4.96256208 102 0 0
2.25366783 -1.60143781 -4.96692133 89 0 0
0.44372213 -2.64939952 -4.96314812 79 0 0
0.4561508 -2.66106057 -4.95921087 98 0 0
-0.49867642 -2.71863389 -4.9844718 96 0 0
0.6517154 -2.48816466 -4.9681797 128 0 0
0.61018544 -2.44505048 -4.96139145 149 0 0
-1.7450707 -2.63271952 -4.95906067 105 0 0
-1.73369825 -2.66411448 -4.9648838 97 0 0
-1.54508245 -4.98339987 -4.96125889 148 0 0
2.24925828 -1.89286149 -4.97228432 86 0 0
-1.89852917 -2.71757889 -4.96444988 107 0 0
2.21525073 -6.65881681 -4.95804024 72 0 0
2.2144084 -6.73629856 -4.95387697 63 0 0
1.97933877 -2.41577601 -4.95798683 105 0 0
-0.16657707 -2.74611926 -4.96384811 150 0 0
1.74131942 -5.53455353 -4.95637894 72 0 0
2.10429645 -2.66454124 -4.95537949 164 0 0
1.89914548 -2.50727105 -4.96525812 82 0 0
-1.05725837 -5.19671392 -4.95860004 91 0 0
0.01984148 -6.57051802 -4.95238018 95 0 0
-1.88869894 -3.23683548 -4.96728373 71 0 0
0.04139413 -2.84123087 -4.96435356 105 0 0
1.93189716 -7.35513067 -4.95304632 70 0 0
0.25772795 -2.74385524 -4.96488619 124 0 0
2.14367008 -7.67315197 -4.94131231 93 0 0
-1.90446758 -3.64016104 -4.95764875 116 0 0
0.32070142 -2.77774024 -4.96774721 132 0 0
2.17530322 -7.52130556 -4.95371294 76 0 0
-0.34580562 -7.44272232 -4.95351839 90 0 0
-1.90052283 -4.00818968 -4.96731138 182 0 0
-0.4244788 -7.54549694 -4.95349789 94 0 0
0.48205039 -7.24666548 -4.95204306 139 0 0
-0.67905498 -7.6737566 -4.9473958 104 0 0
0.29761246 -2.93702531 -4.96238613 134 0 0
-1.91022396 -4.38877201 -4.96098661 150 0 0
0.05448157 -2.79324937 -4.96508169 130 0 0
-0.75382167 -5.19526958 -4.96176291 92 0 0
2.00725102 -2.98571253 -4.94758224 194 0 0
0.49033615 -2.70826435 -4.96074009 83 0 0
0.54919684 -2.77855945 -4.9590826 86 0 0
0.12868461 -2.74587417 -4.9621377 101 0 0
0.12245231 -2.7436738 -4.9640069 94 0 0
0.0689566 -7.35040855 -4.94749689 88 0 0
-0.04874571 -3.14431238 -4.9637351 117 0 0
2.01575422 -3.39685464 -4.9669733 110 0 0
0.0945372 -3.02190447 -4.98177433 76 0 0
-0.03622462 -7.67261887 -4.95028782 106 0 0
0.06124647 -7.67337513 -4.9479003 129 0 0
-0.01905076 -3.1748457 -4.97037363 114 0 0
2.24045801 -3.86791468 -4.96297836 84 0 0
-1.75550008 -0.65190285 -4.97430706 97 0 0
-1.73498523 -0.62042207 -4.97749615 90 0 0
-0.91410816 -1.62665224 -4.94909573 89 0 0
2.14636254 -7.61155081 -4.9579854 0 0 74
2.14663887 -3.12947154 -4.96206808 120 0 0
-1.35775447 -5.44412947 -4.9575386 109 0 0
-1.92166257 -4.39478254 -4.94983912 172 0 0
0.32518044 -2.90361071 -4.96218014 95 0 0
-0.24557772 -3.30609584 -4.9617033 109 0 0
-0.14577273 -7.19415665 -4.95080423 90 0 0
0.32585454 -2.93892336 -4.96368837 128 0 0
-0.15538402 -7.62084913 -4.94407225 126 0 0
-0.9242872 -1.65670085 -4.94788647 86 0 0
-1.1989994 -5.43844891 -4.95316362 104 0 0
-0.89185297 -1.6558286 -4.9797473 74 0 0
0.05059468 -7.38753748 -4.95610905 90 0 0
-1.6291846 -2.40115714 -4.95740652 111 0 0
-1.69830084 -0.48981008 -4.96520185 74 0 0
0.24679179 -3.02752209 -4.96962786 114 0 0
-0.94756699 -5.43247938 -4.94777584 97 0 0
-1.64398491 -0.85909277 -4.96205568 96 0 0
0.27020556 -2.98106122 -4.96315289 108 0 0
-1.48985314 -2.56071377 -4.96172047 117 0 0
0.22158851 -7.35193729 -4.96149826 109 0 0
-1.52481723 -0.73041779 -4.96865892 90 0 0
-1.6025939 -0.83238709 -4.97152567 113 0 0
-0.02231708 -7.67613649 -4.94564772 124 0 0
0.26345736 -0.86737114 -4.96398973 103 0 0
0.52156627 -2.7454977 -4.96057987 83 0 0
0.513592 -2.73459673 -4.95934725 88 0 0
2.24242258 -3.97778106 -4.96288204 66 0 0
0.07176235 -1.29740703 -4.95699453 90 0 0
0.41368341 -3.11985612 -4.96556759 80 0 0
0.48599797 -0.53210557 -4.96646881 105 0 0
0.17242935 -7.6745863 -4.94946814 122 0 0
-1.87849128 -4.57535458 -4.9558773 131 0 0
-1.87098324 -4.58244228 -4.95834446 148 0 0
-1.84873652 -4.59736013 -4.96482372 145 0 0
-0.75661576 -0.51831037 -4.97078657 138 0 0
0.05381704 -1.66966307 -4.96876335 91 0 0
0.05598207 -1.72270489 -4.96388102 107 0 0
0.08742112 -4.90867043 -4.96317911 175 0 0
0.80919248 -0.61003739 -4.97418785 118 0 0
0.11101642 -4.86534405 -4.95526886 129 0 0
0.42485043 -7.69183254 -4.93208838 103 0 0
0.46602395 -4.74320459 -4.95701742 129 0 0
-0.38628632 -0.64054996 -4.96909523 107 0 0
1.08045793 -0.5498271 -4.98859644 156 0 0
0.59772187 -2.8536191 -4.96867418 79 0 0
-1.92593491 -5.33450985 -4.94424343 108 0 0
-0.08205108 -5.10935116 -4.96261549 155 0 0
-0.24682727 -2.43294883 -4.96806765 78 0 0
1.24019277 -0.53883374 -4.97129965 151 0 0
0.79091007 -3.08156013 -4.96443081 165 0 0
0.81297469 -3.05546594 -4.97015953 179 0 0
0.33493027 -5.32368183 -4.95742464 155 0 0
-0.63693893 -5.43025684 -4.94275188 111 0 0
0.05488637 -2.47669673 -4.96970415 140 0 0
0.00999921 -0.5333342 -4.97201395 105 0 0
1.79184723 -0.64489013 -4.97780895 85 0 0
-1.9042635 -5.5844202 -4.96430826 109 0 0
-0.02214836 -0.68100673 -4.97844172 102 0 0
0.6247685 -4.94571924 -4.95392132 124 0 0
-1.81982303 -5.60801315 -4.96407366 90 0 0
0.66426659 -4.99286795 -4.95492697 132 0 0
-0.17797741 -5.46100998 -4.94687033 191 0 0
0.89906335 -5.20693636 -4.9614234 100 0 0
2.09456277 -0.62430966 -4.95741749 144 0 0
0.91348296 -5.21701527 -4.94979811 79 0 0
-1.89356935 -1.32008326 -4.96950197 108 0 0
-1.92367637 -6.1221714 -4.9508791 124 0 0
-0.25481158 -5.76354218 -4.94648266 100 0 0
-1.87782097 -6.05991125 -4.94800186 146 0 0
0.29439312 -3.83431673 -4.95514679 152 0 0
-0.02785506 -5.60930061 -4.96608829 162 0 0
0.30270845 -4.01869965 -4.96786165 158 0 0
0.07863589 -5.48642874 -4.95368242 78 0 0
0.29977769 -4.14531708 -4.96125078 153 0 0
0.33618143 -5.65646696 -4.95290279 101 0 0
0.25058335 -5.76367426 -4.95027447 83 0 0
0.29486921 -4.34899187 -4.95526314 174 0 0
0.19588339 -0.92638206 -4.97545099 86 0 0
1.96342659 -5.35673666 -4.9575901 136 0 0
-1.8979491 -1.46478117 -4.96634007 129 0 0
1.98668122 -5.38598728 -4.95691919 156 0 0
-1.93552625 -6.54623604 -4.94613647 99 0 0
2.22185445 -5.02364349 -4.9604249 113 0 0
-1.92559552 -6.66543961 -4.95280313 97 0 0
-1.93669462 -6.7077508 -4.94321728 92 0 0
-0.02720425 -6.06284094 -4.95369482 85 0 0
0.298491 -6.10545206 -4.9422617 128 0 0
-1.17038906 -2.99788284 -4.97323275 99 0 0
-1.1773026 -2.97914004 -4.95671749 86 0 0
-1.89491284 -1.94385636 -4.96600342 117 0 0
0.34707025 -6.04637527 -4.94192886 142 0 0
-1.6620822 -7.31046104 -4.95142412 167 0 0
2.03269267 -5.4494257 -4.95441151 157 0 0
0.7722702 -5.5784297 -4.96835184 191 0 0
-1.56790519 -7.44493437 -4.93832302 134 0 0
-0.82111806 -2.97742772 -4.94965219 102 0 0
0.30677494 -1.87583375 -4.96791172 138 0 0
1.62031913 -3.01287103 -4.97323751 122 0 0
-1.77348816 -2.21294975 -4.95975351 99 0 0
-1.34668648 -7.67316628 -4.94449902 110 0 0
2.23115253 -5.60465288 -4.95223284 97 0 0
1.71167779 -3.02610159 -4.97290039 113 0 0
-1.18693447 -7.66766214 -4.95127392 95 0 0
2.18721581 -5.67132568 -4.94916677 123 0 0
1.02573371 -5.48064375 -4.96185732 101 0 0
-0.57821333 -3.00236702 -4.97235155 100 0 0
-1.05062306 -7.67911053 -4.94030094 139 0 0
1.50372255 -5.22430706 -4.9445405 117 0 0
0.35128632 -2.54038835 -4.97141695 87 0 0
2.08268499 -1.00984788 -4.9782033 95 0 0
2.22797632 -6.18903923 -4.95086432 62 0 0
0.0247715 -6.27767849 -4.94409513 83 0 0
-1.90591657 -2.78446507 -4.95951176 101 0 0
0.01821247 -6.63962984 -4.95609236 99 0 0
0.41662991 -2.62498212 -4.97227144 75 0 0
-1.911641 -2.92680955 -4.95508003 102 0 0
2.24902248 -1.43621743 -4.97592258 93 0 0
0.0246484 -6.95637989 -4.95330667 93 0 0
2.22425699 -7.00115347 -4.9372592 69 0 0
1.4770056 -5.46769142 -4.95037031 96 0 0
1.46713543 -5.48001337 -4.96285582 103 0 0
2.21246219 -7.01509809 -4.94187975 76 0 0
-1.84268975 -3.20134711 -4.95945549 92 0 0
0.6770165 -2.52663183 -4.96226788 119 0 0
-1.66943669 -3.33856559 -4.95240116 118 0 0
0.02106572 -2.89257884 -4.9623971 108 0 0
0.03727642 -2.89438605 -4.96233702 114 0 0
0.07634956 -2.78484249 -4.96022892 92 0 0
0.10560988 -2.73811936 -4.96386242 119 0 0
-1.91090667 -4.05889654 -4.9590292 139 0 0
2.05639029 -2.73949766 -4.965487 132 0 0
0.29630089 -2.76831055 -4.96478367 74 0 0
0.30489272 -2.78301644 -4.96461439 143 0 0
0.3053681 -2.82590485 -4.96012735 113 0 0
0.31878665 -2.84690118 -4.96253014 74 0 0
-1.91941297 -4.34004307 -4.95144987 101 0 0
0.13141406 -3.02395201 -4.96186686 91 0 0
-0.15519685 -7.22198009 -4.94146395 99 0 0
2.25296688 -2.74568462 -4.95709944 97 0 0
-1.91121185 -0.71795684 -4.96972084 107 0 0
-1.28170621 -5.43335867 -4.9479804 95 0 0
-1.22598803 -5.43280697 -4.94809151 116 0 0
0.28991488 -7.0092144 -4.95132732 134 0 0
0.35697711 -7.08432388 -4.95769787 193 0 0
-1.08605909 -5.44152117 -4.95607424 113 0 0
-0.16267668 -3.41643572 -4.96668243 100 0 0
0.15944037 -3.00446606 -4.96076584 93 0 0
-1.53848588 -2.49659705 -4.96765566 112 0 0
0.16919693 -3.02573633 -4.96163464 129 0 0
-0.89626205 -5.44254065 -4.95414591 112 0 0
-0.73432839 -5.19811964 -4.9580822 93 0 0
-0.11392504 -0.98544902 -4.97730255 87 0 0
-0.62070423 -5.20221615 -4.9525094 106 0 0
-1.38309181 -0.55867326 -4.96729469 123 0 0
0.20362987 -0.51762801 -4.95782232 96 0 0
0.17717868 -0.53542668 -4.97284603 106 0 0
0.02803611 -3.65796661 -4.96399736 81 0 0
0.31146887 -2.92777467 -4.96310616 94 0 0
-1.40878499 -0.57491946 -4.96105385 94 0 0
2.25459838 -3.83267546 -4.94969463 132 0 0
2.24291992 -3.85436702 -4.95936537 82 0 0
0.26948556 -2.99652982 -4.96266651 112 0 0
-1.24181628 -0.50602263 -4.96423149 103 0 0
0.27147919 -0.843961 -4.97238588 86 0 0
2.24084663 -4.00691652 -4.96424723 78 0 0
0.37157851 -0.74942905 -4.95747232 104 0 0
2.24651694 -4.2529006 -4.95532084 89 0 0
-0.21576539 -4.83866024 -4.96485806 83 0 0
0.71673787 -7.51996136 -4.95921373 159 0 0
0.86053121 -7.67382288 -4.94032621 101 0 0
-0.43743017 -2.66787481 -4.96324301 83 0 0
0.96920693 -7.66507912 -4.95452547 99 0 0
-0.40212891 -2.61291027 -4.97573376 80 0 0
-0.07493711 -0.52063334 -4.96310329 119 0 0
0.60307115 -3.301615 -4.95755577 162 0 0
0.04604619 -1.99079037 -4.97260571 74 0 0
-1.91496754 -5.18241119 -4.95272446 115 0 0
0.27532452 -5.21005011 -4.94515705 131 0 0
-1.77469325 -5.08970881 -4.9589591 106 0 0
-0.15598559 -2.32752991 -4.96063614 94 0 0
1.59930885 -0.55095214 -4.97342825 106 0 0
0.89192426 -2.74725056 -4.95410395 100 0 0
-1.91935754 -5.50415945 -4.95103741 120 0 0
-0.68912911 -5.44163465 -4.9548173 119 0 0
1.95514917 -4.90433502 -4.94720554 87 0 0
1.952865 -0.8462348 -4.97720575 80 0 0
-1.7014432 -5.46356392 -4.9594264 90 0 0
-1.84911537 -1.09880507 -4.95801353 69 0 0
2.14335537 -0.55683297 -4.97638512 108 0 0
0.75692451 -5.11767197 -4.94729567 148 0 0
0.76930326 -5.1286521 -4.95309162 150 0 0
-1.82721257 -5.64446783 -4.94059038 76 0 0
-1.73205936 -0.96448386 -4.95894861 108 0 0
0.81472027 -5.18311024 -4.95525885 136 0 0
2.25585008 -0.75005692 -4.97418737 130 0 0
-0.18566264 -5.42199945 -4.96479559 198 0 0
0.297631 -4.28401756 -4.95812607 154 0 0
0.18322197 -0.93817753 -4.96902418 83 0 0
-1.91790736 -6.32113171 -4.96020842 148 0 0
-1.22703195 -2.99371076 -4.96736622 110 0 0
-1.9304384 -6.39849281 -4.94984436 122 0 0
0.31246424 -1.19385195 -4.96257591 139 0 0
-1.90998542 -1.86149836 -4.95715141 92 0 0
0.3412382 -5.641078 -4.9595871 111 0 0
-1.90200663 -1.87102079 -4.96240664 114 0 0
-1.19427192 -2.74735641 -4.95565891 103 0 0
-0.05354121 -5.62230778 -4.94307661 207 0 0
1.22779298 -3.00235248 -4.96263027 120 0 0
1.2500596 -2.98662543 -4.94874191 147 0 0
-0.97759712 -2.74556375 -4.95981646 100 0 0
2.13693762 -5.59079695 -4.95534801 154 0 0
0.44495198 -1.03612483 -4.96600342 185 0 0
-1.93001735 -6.83986759 -4.94679689 111 0 0
1.48349774 -2.75261331 -4.95171022 92 0 0
2.2308588 -5.49373388 -4.95189238 101 0 0
1.36351597 -3.00806737 -4.96953344 127 0 0
0.29714513 -1.45170343 -4.95774031 124 0 0
0.28462917 -6.27942085 -4.95143652 156 0 0
-1.73305464 -2.27632356 -4.9555378 114 0 0
0.3004044 -1.71707296 -4.96321774 166 0 0
-1.70046782 -2.30813646 -4.9598546 103 0 0
0.46439123 -5.91076326 -4.94304609 143 0 0
-0.04412217 -6.03954649 -4.95239782 90 0 0
0.71526378 -5.63107204 -4.95948458 146 0 0
1.58932519 -2.99954104 -4.95918226 151 0 0
1.59218788 -3.01030445 -4.97051477 140 0 0
0.02643171 -6.24813366 -4.94314766 84 0 0
-1.73156369 -7.61431789 -4.94852781 85 0 0
-1.71614897 -7.62188816 -4.94214201 108 0 0
-0.54895896 -2.98234606 -4.95161772 93 0 0
0.91622853 -5.47081375 -4.95111227 78 0 0
-0.4873648 -2.72898912 -4.95598125 74 0 0
2.21908426 -6.52407074 -4.95500898 76 0 0
-1.54605687 -7.43664074 -4.95768023 149 0 0
-1.53632319 -7.48333025 -4.93813848 142 0 0
-1.81228268 -7.6699295 -4.94628572 97 0 0
-0.46071625 -3.02842164 -4.95521736 86 0 0
-0.31624797 -3.21486688 -4.95894384 110 0 0
1.41728854 -5.21504402 -4.95430279 109 0 0
-1.50905669 -5.0210042 -4.9653616 127 0 0
-1.04501259 -7.67944384 -4.9404583 134 0 0
-1.00665069 -7.67255068 -4.94464874 111 0 0
-0.93331599 -7.66959238 -4.95198059 101 0 0
2.25480342 -1.79000616 -4.96493912 96 0 0
0.02600239 -6.59081125 -4.9435606 91 0 0
0.10322615 -2.75944901 -4.9603548 106 0 0
1.24098432 -5.47140169 -4.95043612 91 0 0
0.03681665 -6.79007244 -4.93578339 110 0 0
2.25753307 -1.99789619 -4.96271038 98 0 0
1.49405038 -5.47152805 -4.95554018 81 0 0
0.03979271 -2.93273306 -4.96203661 73 0 0
0.00110083 -7.02302313 -4.94512701 83 0 0
2.25180769 -2.06151843 -4.96339703 88 0 0
2.16332102 -2.16111994 -4.98784494 121 0 0
-1.92499757 -4.15053415 -4.9479394 105 0 0
-1.48556066 -5.58571243 -4.9522748 105 0 0
1.87836814 -5.71053362 -4.95960808 80 0 0
-1.66867495 -5.80964088 -4.94906998 110 0 0
-1.66888762 -5.80463362 -4.94570923 126 0 0
2.12884569 -2.64093399 -4.96170998 147 0 0
2.12305856 -2.65713525 -4.96464872 142 0 0
-0.64161551 -7.67799044 -4.94362688 125 0 0
0.09053465 -2.96718931 -4.96162558 89 0 0
-0.54886913 -7.67777681 -4.94371891 119 0 0
-1.82457173 -2.52177954 -4.95514536 95 0 0
-1.67748046 -0.56245381 -4.9680438 101 0 0
-0.92063516 -1.62964976 -4.95769119 91 0 0
-0.45921227 -7.59640312 -4.94992018 96 0 0
-0.39588413 -7.53826189 -4.9372015 145 0 0
1.80203044 -5.61212778 -4.95914555 76 0 0
0.23910989 -2.75420904 -4.95910406 108 0 0
0.09924142 -3.00410652 -4.96064043 104 0 0
-1.56064546 -5.68564129 -4.95553684 123 0 0
-1.64325154 -5.79282999 -4.95963192 126 0 0
1.90171945 -5.73027134 -4.95250368 78 0 0
-1.40001237 -5.47626638 -4.95088959 88 0 0
-0.21364798 -3.34387541 -4.95877695 110 0 0
0.27375224 -6.45788097 -4.93876886 145 0 0
-1.32529628 -5.42369223 -4.94100189 50 0 0
0.27143157 -6.5462532 -4.93650103 178 0 0
0.28578728 -6.5694685 -4.95286417 144 0 0
0.28557277 -6.60236979 -4.95020008 140 0 0
-0.17022099 -7.65638685 -4.95389748 100 0 0
-1.11448097 -5.44341612 -4.95724869 120 0 0
0.10001139 -3.34243488 -4.95647001 170 0 0
-0.89326477 -1.64034688 -4.95692158 88 0 0
0.43026951 -7.20071602 -4.93989944 170 0 0
-0.05204231 -7.49363422 -4.94189358 101 0 0
-0.66169482 -5.19862795 -4.95622349 94 0 0
0.03972646 -3.7298069 -4.96280193 80 0 0
0.21060044 -3.37700224 -4.9550333 91 0 0
0.25335765 -7.36421824 -4.94437933 104 0 0
-0.12684605 -7.67055607 -4.94951153 103 0 0
-0.08088019 -7.66065216 -4.96309996 119 0 0
0.17219944 -3.3921454 -4.9771986 104 0 0
0.55114591 -7.33507586 -4.94910288 132 0 0
0.03351531 -4.25458574 -4.96965885 81 0 0
2.24710941 -3.89231753 -4.95698452 71 0 0
-0.24665104 -4.90285254 -4.94658327 89 0 0
-0.55209136 -0.51954865 -4.96449184 132 0 0
2.24558854 -4.1987958 -4.95600748 73 0 0
2.24598455 -4.27477551 -4.95672321 79 0 0
0.40146986 -7.68629694 -4.93647051 119 0 0
2.24582767 -4.35978794 -4.95623398 73 0 0
0.60369629 -7.395226 -4.9499445 136 0 0
2.23833561 -4.41035128 -4.96068859 73 0 0
0.64700502 -7.46547222 -4.93916416 115 0 0
0.68188483 -7.49188757 -4.94905281 132 0 0
-0.09755009 -0.5115853 -4.95739317 74 0 0
-0.0700265 -4.67641211 -4.95782137 80 0 0
1.03200781 -2.7463131 -4.95691347 95 0 0
1.23718476 -6.55002737 -4.94312286 64 0 0
-0.32022417 -2.5497632 -4.94891119 86 0 0
-0.38727432 -2.61007953 -4.96067905 87 0 0
-1.92191887 -5.22702551 -4.94550943 130 0 0
0.71455014 -3.16311812 -4.95637226 161 0 0
-1.8293643 -5.01888037 -4.95717287 94 0 0
0.31356934 -3.62895584 -4.94613314 135 0 0
1.39244628 -7.67739201 -4.94199705 91 0 0
-0.05090884 -0.68908852 -4.94776201 126 0 0
1.72021675 -7.63173723 -4.94031954 65 0 0
-0.20272931 -5.2278738 -4.9484024 126 0 0
0.1157088 -0.86703485 -4.96397781 121 0 0
-1.90855849 -5.7077446 -4.95321178 106 0 0
-1.92120731 -5.73886967 -4.94729948 81 0 0
-1.91195536 -1.28690064 -4.95963192 76 0 0
0.32758743 -4.99045944 -4.95805407 97 0 0
-1.67903781 -5.44815159 -4.95224905 98 0 0
2.03021622 -4.79603815 -4.95657492 93 0 0
-0.00862147 -5.35059118 -4.94934511 85 0 0
0.90471727 -0.51394683 -4.95725584 112 0 0
0.93435186 -0.54180658 -4.9833622 104 0 0
-1.79151607 -1.0298171 -4.95951939 69 0 0
1.09854007 -0.51271862 -4.95239019 127 0 0
1.06429803 -0.5282976 -4.96342754 150 0 0
-1.88555586 -6.09310579 -4.9613924 130 0 0
-1.92950177 -6.28163576 -4.94927931 113 0 0
-1.91143942 -1.43519294 -4.95780134 91 0 0
0.5913251 -5.33177471 -4.96147776 99 0 0
-1.90142798 -1.59337687 -4.96483469 125 0 0
-1.90447235 -1.62299144 -4.96248817 130 0 0
0.15139875 -2.35863996 -4.97020102 134 0 0
-1.68233657 -5.81637955 -4.9431262 102 0 0
-1.71925545 -5.85563326 -4.94270706 89 0 0
-0.21367505 -5.40670824 -4.95259666 159 0 0
-1.91630697 -6.4949975 -4.96342897 140 0 0
0.93393373 -5.21383238 -4.95555019 81 0 0
2.04252458 -0.56089044 -4.95627832 138 0 0
2.23890591 -5.41739559 -4.94379854 104 0 0
2.1841836 -0.72427797 -4.9669733 148 0 0
2.1147151 -5.58288527 -4.9405694 125 0 0
0.03186955 -5.72136164 -4.95057583 169 0 0
-1.85825372 -2.49273229 -4.96125889 97 0 0
0.52992994 -5.42975712 -4.95439529 97 0 0
-0.09611395 -5.97886372 -4.9534831 89 0 0
-1.47977126 -3.13464355 -4.96559525 171 0 0
2.25246811 -1.3571142 -4.9718399 79 0 0
2.06784129 -5.94216394 -4.95257807 68 0 0
2.249933 -1.38503611 -4.97291708 84 0 0
2.26123762 -1.44750583 -4.95912647 141 0 0
-1.912871 -2.89732099 -4.95410776 90 0 0
0.28041938 -6.2842145 -4.94644213 147 0 0
-1.9137677 -3.00929999 -4.95534086 96 0 0
-1.91005039 -3.02894711 -4.9571805 109 0 0
2.23203826 -6.17402315 -4.94423962 71 0 0
-1.77348983 -7.56019831 -4.94835424 84 0 0
-1.62939084 -7.34398222 -4.95273829 167 0 0
0.48238108 -5.89352751 -4.94714451 122 0 0
0.49256659 -5.88416862 -4.9506669 129 0 0
2.12858129 -2.22235203 -4.97125292 74 0 0
2.21961546 -6.5018301 -4.95298195 68 0 0
2.2562356 -1.8335222 -4.96342516 107 0 0
0.28567734 -1.51207495 -4.9513855 108 0 0
-1.62908447 -4.90252352 -4.94803286 135 0 0
-1.41061354 -7.62543011 -4.94567347 153 0 0
0.30189693 -1.64780509 -4.96248341 163 0 0
-1.29999185 -7.67079449 -4.94668961 99 0 0
2.00190234 -2.37857556 -4.96794033 79 0 0
-1.86729133 -3.22835374 -4.96025085 86 0 0
0.29435921 -1.81129515 -4.95559883 117 0 0
2.15769315 -7.08748865 -4.94192696 81 0 0
-0.66367626 -2.99684 -4.9648428 109 0 0
-0.97261208 -7.67280579 -4.94581652 112 0 0
-0.57902485 -2.98924923 -4.95936251 114 0 0
-0.83127379 -7.66860819 -4.95234299 96 0 0
-0.47562227 -2.99321246 -4.94314146 81 0 0
0.02604368 -6.44877243 -4.94234276 85 0 0
0.28154826 -1.98891973 -4.94819689 107 0 0
2.0638442 -2.29247284 -4.97827578 76 0 0
-1.8249507 -3.56671023 -4.97163439 115 0 0
0.01653254 -6.51812696 -4.95400572 99 0 0
-1.372769 -5.19595385 -4.96036482 165 0 0
0.0203717 -6.82497787 -4.95443869 90 0 0
2.202425 -7.47983027 -4.94904137 112 0 0
2.19292879 -2.55124593 -4.96061325 177 0 0
-1.92149067 -3.77031255 -4.9510603 169 0 0
-0.04527238 -7.07649469 -4.94944191 87 0 0
-0.19872056 -2.95727324 -4.96520948 107 0 0
0.31173965 -2.47745013 -4.95732546 107 0 0
1.96228492 -2.91663337 -4.95573044 148 0 0
-1.49610245 -5.60219717 -4.95382309 106 0 0
-1.91008246 -4.20155907 -4.95879412 150 0 0
0.28558746 -2.80970931 -4.95251608 132 0 0
2.25241399 -2.71520424 -4.95906591 100 0 0
2.25120449 -2.80231333 -4.9596715 95 0 0
-1.65073299 -0.87817287 -4.9669857 90 0 0
-1.91056311 -4.44161654 -4.96141958 158 0 0
-0.03744189 -3.16819406 -4.95719385 140 0 0
-0.02207432 -3.19705105 -4.95303106 136 0 0
2.24505448 -3.02322388 -4.96302509 91 0 0
-1.58281803 -0.78547841 -4.96146679 107 0 0
-1.2830807 -5.42971039 -4.94479561 75 0 0
1.97833943 -3.34074354 -4.96213627 88 0 0
0.28331918 -6.97419786 -4.94739962 122 0 0
-0.09519903 -3.49703741 -4.95973349 110 0 0
2.19038391 -3.18117976 -4.9630599 131 0 0
0.31661066 -7.04547215 -4.95071697 138 0 0
-1.29630494 -0.5121302 -4.9697175 107 0 0
2.2575562 -3.88986492 -4.94629955 120 0 0
0.14475776 -3.38315845 -4.96253014 127 0 0
-0.50358045 -5.21639919 -4.93750095 64 0 0
-0.45686716 -0.52969342 -4.95646572 109 0 0
-1.89919698 -4.57468081 -4.94122171 84 0 0
0.42295778 -7.57138062 -4.94175482 108 0 0
0.1210974 -7.6708889 -4.95215464 111 0 0
-1.74593377 -4.73867607 -4.95772791 125 0 0
2.23394251 -4.48217344 -4.96681404 78 0 0
-1.90731692 -5.02069807 -4.96019077 126 0 0
0.73825216 -7.55926037 -4.94938517 120 0 0
-0.03329503 -0.51980084 -4.96199036 122 0 0
0.76602352 -7.59603024 -4.94653368 115 0 0
-0.00135174 -0.52666861 -4.96591806 141 0 0
0.80279458 -7.64832687 -4.93715143 103 0 0
-1.92127943 -5.27825403 -4.94915485 89 0 0
-0.44683582 -2.69034219 -4.95517921 88 0 0
-0.05438598 -0.64162117 -4.97696924 107 0 0
-0.21713535 -5.24636602 -4.95100546 124 0 0
1.01962185 -7.67375469 -4.9424367 106 0 0
1.08758247 -7.67180395 -4.94552994 91 0 0
0.08087825 -0.80172282 -4.98235655 102 0 0
0.06731172 -1.9103229 -4.95383167 81 0 0
1.28416014 -7.66884708 -4.95243692 90 0 0
1.25405979 -7.66730356 -4.95473766 92 0 0
1.30956161 -7.67777967 -4.94079781 98 0 0
0.29924822 -3.77803993 -4.96680307 138 0 0
0.28831232 -4.0106411 -4.95288563 164 0 0
0.0417284 -5.20866251 -4.9505477 87 0 0
-1.89266849 -1.33626223 -4.96986675 104 0 0
0.02313928 -5.38952446 -4.94983149 78 0 0
1.61017859 -7.67337561 -4.94761562 90 0 0
-0.5847764 -5.4433732 -4.95441008 106 0 0
0.33719498 -5.37325478 -4.96921062 0 0 127
1.64883876 -7.67317963 -4.94698429 86 0 0
-0.52468568 -5.42965126 -4.94491243 93 0 0
2.10970306 -4.71719837 -4.94219685 124 0 0
0.29216021 -4.43181801 -4.95687723 168 0 0
0.15365069 -2.34423494 -4.96368647 195 0 0
0.09796437 -2.43196368 -4.97358227 137 0 0
1.14537489 -2.74316072 -4.96436071 76 0 0
0.92173427 -0.52263355 -4.96492052 141 0 0
0.99295825 -0.53748477 -4.97699499 110 0 0
2.22579837 -4.55180597 -4.95856524 82 0 0
-1.90039265 -1.65202785 -4.96410561 103 0 0
2.07243872 -5.16914797 -4.94396925 132 0 0
-1.60373902 -2.82109571 -4.96207333 79 0 0
1.28572333 -0.53293341 -4.96492195 178 0 0
2.037251 -5.23344517 -4.95624304 228 0 0
1.3272177 -2.99034357 -4.95205402 152 0 0
-1.92626941 -6.25103235 -4.95200729 131 0 0
-1.45669425 -3.11661267 -4.97177267 160 0 0
0.82436484 -5.19453716 -4.95755816 131 0 0
0.94730675 -5.21305132 -4.95725107 74 0 0
1.68827951 -0.55796796 -4.98098516 114 0 0
1.68832636 -0.5461725 -4.96800661 125 0 0
2.2342062 -5.11973953 -4.94977093 96 0 0
-1.81611204 -2.15924454 -4.96084404 101 0 0
1.75145447 -0.57032824 -4.96064281 117 0 0
2.23443913 -5.15643311 -4.94948959 80 0 0
1.53322124 -2.9900198 -4.9505949 139 0 0
0.05464303 -5.46722889 -4.94939327 79 0 0
0.08574519 -5.44578743 -4.94467354 87 0 0
-1.93609929 -6.47501898 -4.94378233 71 0 0
-1.90195727 -2.59432197 -4.95950985 109 0 0
1.95325613 -0.8190974 -4.95876884 128 0 0
-1.9322803 -6.59941626 -4.94893074 117 0 0
0.04286565 -5.71774149 -4.96023846 197 0 0
0.28399962 -5.74548197 -4.93793154 104 0 0
1.99689007 -5.84479427 -4.94886208 90 0 0
2.14383554 -0.6643399 -4.97376871 130 0 0
1.93266928 -3.29284382 -4.96766949 99 0 0
2.28465104 -0.57406747 -4.95559549 74 0 0
-1.1118269 -2.98533821 -4.95867014 100 0 0
2.13864374 -1.0611105 -4.96501064 118 0 0
2.22156692 -0.76619822 -4.97043514 122 0 0
2.27731776 -0.68642116 -4.95973587 124 0 0
-0.92817181 -2.75446558 -4.95045376 105 0 0
0.37242648 -5.62598658 -4.94320631 96 0 0
-0.92184585 -2.99222326 -4.96227503 114 0 0
2.23148513 -6.22356319 -4.94375944 64 0 0
0.56258851 -5.80680466 -4.95486546 121 0 0
0.59016901 -5.77881145 -4.95826149 128 0 0
-0.74887609 -2.99582505 -4.96584225 107 0 0
-0.74920005 -2.98550487 -4.95612049 106 0 0
-1.67792213 -2.72412086 -4.96041298 100 0 0
-1.93057334 -7.38182688 -4.95099258 73 0 0
-1.43856883 -7.60249233 -4.93810844 170 0 0
0.3177588 -6.08954716 -4.94753456 116 0 0
2.05403876 -7.21448565 -4.94182158 78 0 0
0.44609645 -5.95380068 -4.95752954 140 0 0
-1.90496361 -3.16867113 -4.96185207 102 0 0
-1.33482814 -7.68639469 -4.93182039 101 0 0
2.21862674 -6.94443941 -4.94949818 66 0 0
-1.18599772 -7.67213631 -4.94796705 113 0 0
-0.45172274 -3.04747796 -4.95899725 116 0 0
-1.71723628 -7.22934914 -4.95618963 136 0 0
0.74803823 -5.57016087 -4.94514322 154 0 0
-0.36258519 -3.16103005 -4.96098661 99 0 0
0.65259075 -5.70446014 -4.9590497 132 0 0
-1.81630838 -7.67375183 -4.94429302 80 0 0
-0.25311911 -2.88259506 -4.96752453 121 0 0
-1.74050605 -7.66496992 -4.94832087 104 0 0
-0.16355795 -2.73965025 -4.96229696 169 0 0
-1.90641069 -3.72494936 -4.96265984 126 0 0
2.2024641 -7.58173132 -4.95233393 75 0 0
2.20889926 -7.62709093 -4.94944763 106 0 0
-1.91264224 -3.88131595 -4.95763683 147 0 0
1.32064593 -5.22550964 -4.94133663 135 0 0
0.39175814 -2.18329453 -4.96260214 125 0 0
-0.09194201 -7.13934851 -4.94511938 98 0 0
-0.05990911 -7.10501766 -4.94141054 109 0 0
0.02383157 -7.00081396 -4.94020796 98 0 0
0.07526175 -2.93259668 -4.95351648 99 0 0
1.94810677 -2.89387298 -4.95879459 131 0 0
-1.45024514 -5.12985754 -4.94490147 119 0 0
-1.26755023 -5.21073151 -4.94847059 104 0 0
-0.96222913 -5.20096159 -4.95547533 104 0 0
-0.9384262 -5.21696377 -4.93884182 151 0 0
-0.94573134 -5.19246435 -4.96561289 82 0 0
-0.90770358 -5.21016979 -4.94636679 102 0 0
-1.86795354 -0.78318232 -4.97305679 89 0 0
-1.87123191 -7.41805983 -4.93840218 93 0 0
-1.13692403 -5.21601915 -4.94099569 113 0 0
1.40170741 -5.47621918 -4.95821857 87 0 0
-1.71209645 -2.69782829 -4.97097063 85 0 0
1.61439919 -5.45906782 -4.94443941 166 0 0
